ncols         271
nrows         30
xllcorner     610758
yllcorner     5085477
cellsize      500.000000
NODATA_value  -9999.0
1790.200986 1781.000000 1784.112149 1840.894043 1986.672592 2143.197623 2269.716567 2384.191039 2357.040001 2012.244625 2199.473436 1872.609273 1691.173247 1850.719409 2120.595031 2389.910146 2455.810199 2489.229553 2647.062793 2769.376033 2767.551536 2658.530085 2419.127790 2492.863919 2429.409925 2306.843161 2057.531427 1889.934675 1847.592288 1484.883182 1353.870674 1566.281925 1746.948097 1895.646991 1990.810438 2085.003514 1962.468053 1787.026325 1645.579201 1466.007925 1303.317896 1132.085870 987.973015 773.396917 707.913591 579.467691 541.805042 579.577338 528.029892 503.744590 513.940471 512.723669 534.858833 656.436833 784.993655 944.297763 1147.999370 1250.039015 1380.124656 1376.157500 1237.445334 1133.089264 863.195717 581.455967 516.550369 423.398675 483.009383 486.895995 433.440009 424.648135 486.777914 589.709446 745.833032 868.197847 1080.767530 1276.650340 1200.993333 985.194427 818.245820 280.287121 246.303396 244.410112 247.341237 406.464267 431.214634 469.117170 589.831716 805.620616 942.616113 1029.979528 1365.764960 1478.557164 1468.721490 1338.425545 1459.383083 1464.611166 1671.423264 1703.993256 1506.060463 1257.269753 873.356745 593.970033 460.997429 361.083080 298.731399 217.975357 190.696477 184.942338 205.063419 383.281280 362.060336 503.754629 779.849124 924.805186 1195.121867 1259.487972 1443.545781 1437.319917 1135.056289 1059.227175 996.342765 785.409627 695.565036 460.496489 446.000000 446.000000 540.754083 495.220215 481.456678 611.459060 870.762958 1122.887624 1246.954760 1312.452654 1292.046712 1162.272274 937.207120 1138.002391 1282.273208 1202.673380 1173.174987 1112.478723 986.466783 757.258568 763.529706 589.124293 450.211793 448.815657 423.792434 465.394580 494.340344 722.123812 946.934904 1017.303804 903.658404 805.338135 984.492976 860.237091 563.719754 591.813422 724.101845 852.964705 889.623371 985.273858 1067.038756 974.516599 903.449247 1098.058870 971.885028 812.093607 756.983703 841.562169 879.030771 906.198373 528.858067 352.118700 289.035585 277.086729 274.318310 275.062614 513.089494 946.631298 1238.497109 1196.657223 1138.158164 513.041610 450.115685 668.407563 1172.037144 1080.755736 1297.070001 1214.831791 1094.992246 1029.865298 909.766957 812.139144 711.752255 668.594914 669.233864 852.542515 879.191127 726.889948 874.886714 841.349098 713.885012 676.077027 499.553371 387.687740 334.570578 340.448989 416.211659 382.927486 437.425855 620.326054 861.591358 930.941309 850.413343 715.770826 570.682759 482.492490 386.289403 405.845076 296.002325 275.233757 271.294746 268.189971 273.257051 271.523469 286.149133 278.390096 297.348718 400.055398 455.918469 486.506715 387.914206 230.420226 229.256275 231.295234 230.696885 226.757863 223.794181 368.477202 523.426164 618.879760 703.015489 744.116548 880.675283 911.017380 835.246747 578.165191 447.826123 416.509996 589.953298 866.749937 875.149928 628.370819 734.397359 799.251217 722.686550 848.346325 884.239655 799.959164 1002.221496 905.267919 1036.863428 927.828676 998.488954 842.281278 659.741609 765.377647 1014.007297
1881.330542 2003.284996 2027.711314 1992.051671 1937.894409 1900.922518 1985.454688 2197.905153 2211.035302 2077.803654 1952.638223 1801.685749 1628.691598 1887.909217 1986.467774 2197.752658 2475.487369 2757.527706 2595.885172 2505.108544 2565.921465 2747.932737 2699.872144 2738.146049 2547.724311 2364.927675 2222.078859 2186.747160 1999.410924 1662.687689 1387.922261 1265.694006 1475.471204 1662.970499 1759.807327 1958.950838 2045.862223 1783.711168 1627.543491 1406.396521 1230.422431 1094.285426 1000.706802 872.489833 747.690485 577.320286 535.959882 520.326973 525.321988 519.864820 580.500338 602.089030 683.152382 842.806246 983.922701 978.284759 1023.501167 1220.393299 1386.241925 1258.380824 1076.307795 987.816810 741.963914 581.568078 530.237508 505.996383 443.295903 420.318269 403.002929 510.428939 588.665161 638.047187 811.776214 997.835038 1170.740253 1370.085988 1491.901988 1272.585031 661.688758 259.063346 244.723762 243.208366 244.186791 391.323473 473.549115 437.447664 560.401867 782.009469 948.120890 1078.489404 1317.671435 1464.557853 1523.414693 1448.714533 1558.323747 1651.052536 1745.550980 1924.649079 1382.150640 1006.353595 802.968296 796.612503 631.775600 479.238057 299.442228 190.507320 181.512443 184.413844 187.966778 369.207689 360.574383 570.567548 806.153322 995.942336 1188.238206 1311.322224 1635.024153 1585.316195 1253.342481 1155.721881 1009.407710 814.003955 629.648427 473.102264 446.000000 446.000000 517.142736 610.267056 592.355956 468.833478 749.223243 906.231933 1012.077359 1058.528692 1031.950903 990.009401 817.945350 1083.614658 1043.918051 1019.923034 1001.971980 875.539811 645.875926 603.206573 531.430056 454.284015 422.122071 419.344549 465.261881 528.763646 661.669246 842.808903 986.222361 1106.867332 1237.544037 1157.899164 1037.428857 803.527840 608.090688 695.143306 787.598676 1005.090371 1091.696390 1088.191015 1394.263717 1275.036284 1146.373013 1434.329197 1065.060104 1187.671807 1154.116021 1173.132008 1219.855412 1111.053770 951.991423 612.513124 500.508664 278.233227 274.989631 267.614010 267.180547 324.238741 638.363459 833.419679 893.965129 671.353795 342.291865 483.880990 838.323051 1169.647321 1352.534855 1319.313263 1188.845911 1182.367282 1052.211138 973.736649 906.595815 959.588207 996.115307 918.175960 865.435296 820.937476 990.375329 1029.561005 943.592644 940.716779 760.956460 661.670201 343.286719 313.407593 311.487173 324.898069 320.049784 370.463952 461.077013 531.080082 544.175578 438.038079 411.859057 412.717817 429.286618 294.629427 283.202799 277.004231 273.008932 266.853024 263.679692 261.845845 258.151303 256.958167 266.370944 340.262451 464.655403 440.242022 235.028456 229.068240 224.504278 226.789005 220.962633 223.462766 319.833183 451.003959 549.886700 729.394681 836.846319 872.951874 985.196838 863.411520 573.702341 439.792924 489.075514 533.729270 457.119997 617.689350 912.668150 692.909928 798.815739 898.544715 864.179449 878.049318 1084.425147 1034.900471 1097.071902 1019.172556 1060.767174 1063.511833 965.495131 991.786926 754.073247 732.903448 871.968486
2046.883569 2152.945062 2267.362181 2269.560311 2125.645200 2028.408359 2122.300239 2064.236685 2281.634227 1994.817619 2144.617457 1850.621669 1550.269270 1844.049453 2189.421610 2282.287699 2492.377055 2624.566019 2364.369218 2293.975012 2491.595361 2680.327429 2561.218878 2503.848431 2358.075226 2450.145579 2511.329249 2301.140586 2006.825107 1852.927009 1535.036004 1262.977287 1254.303401 1418.825350 1585.294193 1802.010993 1832.073910 1847.867837 1697.375993 1422.581341 1255.162181 1190.131651 1192.035585 1051.836119 780.573911 578.104308 537.477402 569.931539 572.014525 603.137702 666.681927 715.116378 828.182472 1167.024383 1277.700031 1212.423918 1073.101427 1004.775080 1095.995632 1052.166277 889.250329 843.647970 740.166689 585.809789 533.192393 503.939267 488.249399 428.109762 469.000224 519.126607 618.850924 713.353007 900.180780 1157.306732 1357.900304 1458.361771 1594.833181 1054.749080 394.214848 267.338950 246.448462 243.047138 271.839511 460.483189 472.443757 443.115506 545.557825 756.334143 950.256961 1195.165006 1410.250073 1564.535005 1617.975261 1454.525784 1560.666161 1732.351746 1923.637675 1935.854522 1279.477299 1198.722992 1180.762665 1060.348507 615.641054 478.592408 363.439463 183.915802 183.726260 183.190469 187.610549 290.657491 369.004021 543.516232 791.646574 1066.384052 1193.257704 1446.376940 1686.390193 1330.354722 1133.543415 1086.873602 1024.593538 824.117129 603.567504 469.786569 446.000000 446.000000 512.227162 634.996826 630.248623 471.795102 562.660122 684.364640 776.695141 805.025572 824.493164 792.564639 792.939341 880.099737 841.328428 701.074041 655.576655 591.356929 509.036179 498.138956 480.858440 444.315735 421.648026 447.972331 540.533283 680.014383 767.362692 925.164001 1229.593586 1389.805073 1336.881086 1116.038966 887.255530 707.325639 676.089653 736.506841 904.581126 1038.389091 1332.767341 1440.994173 1604.553763 1620.403090 1478.727282 1618.209649 1355.038221 1478.798913 1443.676086 1459.693821 1508.975180 1330.700399 1279.071964 925.159532 820.246192 678.864111 422.149608 282.046838 264.955793 258.803283 258.297829 333.722931 334.316190 285.021327 266.996904 274.205601 438.520881 930.834978 1090.490645 1326.099441 1328.825457 1279.436789 1216.855039 1121.685764 1146.305938 1135.515867 992.384698 1033.174816 1021.936278 950.751278 1041.317276 986.919582 1168.112291 1134.241632 939.965051 815.069507 494.571708 316.591186 301.974732 311.733629 312.079322 309.831411 316.755692 327.903429 335.521011 408.629507 717.096901 560.991737 301.874094 291.855631 284.292393 279.833536 274.692810 271.900682 326.131227 278.150503 265.460594 299.825236 261.195117 239.782731 237.348738 234.282680 247.799524 290.978566 353.852463 293.665592 223.429416 217.174374 281.876435 430.828694 588.711708 697.536016 897.126839 1038.190244 1080.694924 832.031237 552.169936 543.234652 649.510639 733.517085 582.010178 549.457957 819.193660 847.005104 753.196548 960.060839 1083.658881 920.862420 986.646714 1162.099950 1254.114027 1165.386861 1103.884651 1235.587041 1099.168351 1049.635237 811.678579 718.511503 851.688846
2215.284648 2269.253776 2439.409693 2412.608421 2346.489110 2288.058306 2334.943648 2293.247092 2397.092833 2307.848540 2234.185493 1960.270913 1577.897153 1790.675116 2086.122775 2322.385670 2455.574447 2363.104784 2158.762104 2126.735426 2425.550943 2659.714708 2589.919572 2400.343854 2172.336626 2107.148253 2209.129501 2117.788194 2069.164668 1881.930781 1659.090528 1360.378963 1173.882858 1166.986042 1342.342749 1531.004111 1678.924286 1726.795927 1620.150877 1422.844630 1257.771270 1354.880294 1168.868646 1030.392145 757.079360 581.601737 623.144160 655.623711 725.215202 763.338571 789.813945 939.192725 1146.103801 1278.758479 1547.739255 1542.777338 1306.771097 1049.372879 886.762798 855.473785 770.549566 750.224722 702.477397 588.968056 539.140288 503.975850 458.783660 477.578707 444.077616 528.902372 624.403202 757.948377 981.835263 1163.640036 1342.472817 1472.814909 1371.110101 949.027967 315.660502 249.793135 245.345531 244.000000 330.876058 444.012312 483.287356 454.048262 587.267186 775.298887 970.000821 1238.816206 1508.570551 1672.877722 1712.817974 1523.746342 1563.112343 1648.729724 1815.461939 1816.767063 1550.407889 1496.311815 1335.355443 992.088492 726.210189 442.935298 326.810157 188.290637 183.452167 181.872192 182.197479 276.080923 403.268992 500.556221 720.361551 969.253396 1102.597646 1327.880352 1458.951443 1193.300341 985.405873 990.780598 1095.607889 901.993959 719.917144 535.788435 446.000000 446.000000 446.000000 540.021024 607.445914 584.738129 440.342619 589.840090 539.550564 551.003062 631.921844 623.641267 707.242917 631.682233 623.203216 531.900774 480.387580 436.953029 443.300159 435.493959 428.671230 424.932226 501.411295 644.706235 824.501641 966.788883 1327.897364 1316.566771 1450.430730 1213.576379 1066.264055 899.596556 781.102142 815.615748 814.339308 835.227511 965.378552 1384.864536 1687.890527 1845.577798 1748.573245 1814.842696 1756.247790 1750.842032 1736.866497 1800.293750 1692.430016 1858.229377 1833.512665 1710.051246 1544.970731 1216.188955 1119.510207 1053.239111 719.414445 511.085567 346.507189 267.807203 259.309442 250.696119 251.706463 251.223853 249.619844 246.899453 238.999172 289.765543 745.607799 1101.218998 1148.183179 1387.663455 1345.799154 1306.043816 1262.264101 1153.741159 1057.024348 1203.599532 1177.634233 1023.143833 1000.426369 873.524064 1112.100141 1227.278532 1108.288725 1027.171705 896.654544 491.175580 354.092441 299.454918 297.907334 303.889111 296.154436 300.022715 306.169554 361.181073 565.767160 351.523122 305.672736 296.523066 293.122067 285.930968 311.815606 385.217145 366.311281 333.737649 299.913711 294.423106 281.515433 238.296540 232.018502 231.202885 377.361806 490.448005 552.055846 443.442742 299.390024 215.266986 233.328553 376.335717 674.089140 771.052732 933.620868 1148.139945 1060.705079 805.703119 559.706136 606.280386 829.905914 916.388866 804.447361 525.241535 757.432791 963.592343 811.804026 931.861412 1164.557696 1071.609747 907.774164 1049.819764 1156.477472 1099.709078 1081.164337 1031.061687 878.758776 989.553334 890.471195 603.742318 723.745101
2398.604871 2439.059149 2580.441292 2572.257930 2553.589409 2482.436387 2506.510790 2529.919186 2590.859753 2376.683183 2154.328761 1923.553495 1523.663858 1741.862430 2071.337069 2325.246913 2153.095444 1914.906380 1984.770672 2190.195813 2427.573518 2650.454831 2542.315337 2303.058603 2097.790631 1808.822142 1773.940331 1796.331759 1836.504344 1654.299565 1407.386226 1327.964864 1463.676635 1182.865645 1111.102189 1335.039792 1457.180822 1573.116501 1499.916996 1393.952889 1326.413277 1361.380868 1150.277343 862.340327 664.388142 680.564559 761.163764 830.994035 840.403062 912.223147 1045.515462 867.532853 1153.349834 1461.442925 1597.939979 1865.950777 1487.741823 1086.305140 912.686113 801.909975 747.100170 659.630011 615.164313 598.933223 537.312744 495.001681 492.789508 491.406932 465.282533 547.220810 647.174142 813.387073 996.213461 1137.445627 1304.720042 1084.790925 864.425230 638.733065 317.631637 248.994854 243.071228 247.874842 377.170921 490.598333 513.428452 463.591587 595.215004 820.153943 1030.923362 1267.565356 1512.050355 1698.317775 1778.287452 1558.118309 1560.820289 1585.840283 1642.184017 1636.662535 1482.136510 1354.876851 1203.951810 1122.101040 732.264557 375.769195 206.980695 182.814170 182.585033 181.185440 182.296622 252.751088 415.094391 577.684096 744.946863 822.097577 907.044806 1073.891629 1193.801580 1035.828287 920.149910 909.837810 1030.020982 1021.430934 813.812456 604.749743 448.594153 446.000000 446.000000 446.000000 490.949658 580.303353 449.409444 437.000000 445.771246 468.489623 511.554164 550.049198 543.393055 500.788866 446.293220 427.902771 426.751595 425.695891 424.120308 424.213472 467.053344 654.519679 777.038646 1023.212183 1120.322882 1173.838525 1193.890549 1176.668262 1108.555261 973.777526 876.070386 812.356451 878.258977 967.210623 990.160376 1058.224298 1174.468186 1431.627129 1789.962524 2019.032507 2111.078047 2041.902410 2036.028086 1932.531751 2007.326051 2012.650986 1895.805172 1849.042082 1850.598788 1854.185010 1806.820404 1621.926241 1547.936175 1425.327973 1139.692369 903.227043 655.502606 561.125637 672.606454 584.441943 425.170470 281.204625 287.405491 242.006244 240.047693 236.625906 240.289395 542.141304 1002.124978 1343.125402 1438.365745 1416.039174 1334.416161 1199.900543 1195.508923 1298.721052 1254.477436 1124.645634 980.151453 754.135431 1006.752020 1054.387303 926.249907 798.789367 799.619596 726.581536 336.228494 292.050966 290.760669 295.978402 299.503205 305.678852 312.638767 315.620976 320.472594 315.017006 304.823470 315.898456 312.859754 406.749984 396.497432 376.870288 375.311609 373.900708 391.367005 388.603178 364.098914 361.424754 265.324448 231.270244 245.162196 258.568806 679.771232 646.325002 492.694702 217.916288 230.584611 485.288709 760.001847 949.729176 992.028165 1151.602248 924.444208 701.063025 514.189539 577.352282 766.183559 996.889995 859.594881 612.766514 715.159479 882.916546 1052.371444 923.458717 1117.698105 1218.164006 972.580108 791.066958 869.186745 686.307184 924.237498 613.243287 618.818339 610.378174 832.579873 524.493609 498.582301
2593.929367 2636.154731 2747.497196 2626.568071 2568.585734 2598.634540 2685.849418 2700.315065 2662.136094 2366.473458 2169.788908 1964.596583 1504.605081 1788.652954 2177.325128 2047.429382 1729.169140 1750.999030 2130.610147 2410.228856 2576.590494 2726.705414 2583.320749 2308.780151 2104.049643 1754.076220 1669.352654 1567.208342 1564.412939 1415.512070 1423.948746 1659.063968 1695.734644 1469.545845 1163.370568 1059.824033 1227.355258 1365.596438 1387.502871 1345.451653 1361.206800 1265.341668 1013.796332 753.524601 751.217995 779.426313 948.013641 1179.975716 1093.064164 1230.208250 1254.211047 957.851935 1297.749207 1446.307917 1570.179833 1770.228045 1421.320741 1056.326637 870.485199 768.911476 706.396848 647.760873 543.009820 519.680519 511.145314 516.809717 501.756972 490.566259 489.582202 629.262483 735.328821 862.082995 1007.204654 1221.386270 1366.058896 818.763349 657.518029 442.068733 290.521373 241.144454 243.945064 242.474772 388.096193 529.553484 587.528774 457.736022 582.868645 765.790657 953.129105 1165.456444 1410.464700 1718.313308 1761.981810 1594.206022 1554.751413 1551.848160 1519.496853 1448.714482 1218.958509 1208.207774 970.470721 959.257214 887.882444 471.832586 183.450228 182.802439 181.412830 180.446116 187.249064 273.868781 384.109961 543.020229 635.617334 690.933440 839.654526 954.778956 954.811088 950.209109 843.172137 900.663447 1023.386981 1014.198759 925.086707 702.850496 516.460795 446.000000 446.000000 446.000000 446.000000 562.559175 525.584920 437.000000 442.376301 456.334115 479.776762 500.595493 500.004482 469.899058 437.292986 428.683218 439.778890 443.784352 451.783438 473.972579 752.779897 987.894299 963.358687 989.268187 1003.263200 965.578924 945.523602 901.509419 867.541395 853.880343 866.079478 914.445164 1007.679956 1113.733781 1233.062074 1425.204983 1659.576862 1728.157225 1881.032607 2120.783083 2103.256304 2052.208023 2054.503155 1974.633139 1987.360335 1978.268307 1838.664660 1819.803627 1838.327993 1787.726926 1756.737662 1711.741915 1776.390502 1684.009160 1583.314766 1443.671059 1330.181369 1059.650846 1078.203109 1137.024761 960.384945 813.903433 579.979337 386.237344 239.155456 235.633604 236.597520 283.778128 873.273376 1270.041743 1461.374446 1416.110772 1346.112976 1308.558093 1352.248944 1228.259736 1126.935223 1033.771412 950.513839 673.768845 882.568822 883.299546 729.687049 613.405775 795.644637 517.039405 287.939133 287.712264 305.515249 395.757691 493.737529 374.071290 320.105541 325.396167 327.562274 324.266433 310.763902 329.143139 361.669583 382.327591 408.093351 461.291366 505.709019 556.632655 631.241347 555.610126 602.181137 610.201209 460.561233 550.190975 413.719660 224.333642 494.379229 717.159386 594.103904 239.026838 231.050659 642.996574 867.899641 1041.323662 1142.202378 1136.462104 845.028856 588.151091 705.254774 629.368128 759.972437 996.761717 895.768818 685.143778 724.387033 899.909143 1116.908737 1129.438758 1138.534868 1208.163036 826.784343 552.708969 637.362027 544.725354 761.072191 621.449148 454.753398 704.346044 587.604228 404.936683 408.034481
2483.951334 2643.476980 2508.423628 2382.450081 2412.598117 2656.646870 2575.444238 2594.073926 2642.776697 2349.912430 2090.014409 1852.225393 1450.829738 1754.875102 1910.303983 1644.388110 1783.452765 2092.891426 2214.193548 2516.458687 2464.695432 2514.087511 2588.455237 2453.975037 2110.326753 1885.412413 1684.029181 1527.965579 1447.438595 1487.998516 1694.790575 1903.525863 1783.234919 1654.851898 1403.210721 1149.034657 1015.880743 1183.246887 1256.921686 1265.485738 1261.744173 1072.194749 839.558674 710.411055 859.386213 892.962359 1060.124850 1371.459422 1448.077596 1600.836757 1241.645319 1268.463930 1438.483885 1475.259476 1517.074054 1545.506435 1259.118686 997.069268 829.433438 730.382315 680.121785 591.556815 621.206350 609.219230 593.043834 544.338850 498.811756 488.086163 519.060311 673.772188 746.031656 929.005580 1126.467568 1345.152514 1452.760640 883.971460 710.167949 335.652137 252.905975 246.720271 239.825359 244.890839 461.283337 569.944108 587.467982 467.871681 576.749619 727.206385 917.950719 1139.839578 1353.372644 1628.736658 1727.409759 1642.596366 1579.044590 1561.560744 1510.584532 1361.249925 1065.654383 1051.750392 786.738635 695.134394 615.974382 502.791613 236.662973 181.323687 180.748190 182.051708 210.259373 293.087775 357.885023 465.855399 581.749246 654.630584 717.714705 756.206101 752.259469 769.619556 759.098662 770.682496 846.091101 900.113108 904.745764 737.114136 564.257484 455.249296 450.392886 446.000000 446.000000 450.307971 466.877385 541.971407 444.466841 441.256058 444.692635 451.035603 452.970641 438.817623 430.952053 441.025386 471.534420 489.419558 611.183367 905.054635 953.537565 991.066202 1000.879513 1002.701696 987.619623 957.992262 933.398830 914.655504 920.466535 932.498788 979.260227 1058.982989 1136.796818 1237.491729 1604.440294 1778.411697 1923.289100 2010.790701 2066.569148 2127.018337 2070.617324 2041.988540 2000.528117 1896.482285 1912.780584 1911.762046 1847.530190 1805.168558 1802.670761 1771.256869 1702.105991 1602.350262 1583.419788 1558.411510 1577.627957 1461.732689 1362.169792 1188.725619 1192.433700 1304.002807 1209.376802 1143.744771 954.448999 629.692726 395.987775 236.656980 234.603638 235.655146 546.284956 973.780832 1381.822587 1400.931206 1235.901046 1143.074254 1146.761575 1226.503347 992.036669 774.141484 699.630299 595.063163 679.072408 652.325809 591.330184 558.481766 554.217699 294.649357 281.882357 290.879615 454.042189 598.242919 648.510263 639.746889 507.556553 375.120195 332.990993 330.911590 347.270188 394.349318 385.311067 463.144192 526.113442 648.723374 787.186147 831.343291 817.992518 864.255651 906.060607 892.128124 767.840958 828.546624 636.216039 329.767571 241.125129 499.875241 367.155046 214.583015 236.365515 497.365414 617.196111 854.493610 1032.191357 1164.283440 951.890993 654.760832 742.658543 850.017102 641.210351 845.964685 991.991979 782.965957 767.593105 773.493635 962.941124 1208.961635 1265.207297 1024.667600 818.261555 597.814502 409.704230 578.479365 722.353659 509.929507 393.273008 666.064853 652.225162 334.946660 334.976007
2528.897439 2516.782832 2254.341825 2181.414357 2465.234182 2518.211195 2413.850897 2393.356575 2464.710637 2347.435509 2229.068041 1767.686698 1379.138606 1634.117080 1583.496171 1815.423599 2032.557230 2204.504210 2414.682607 2328.385795 2210.212930 2297.633217 2544.869151 2319.811093 2036.582347 1761.054859 1744.134062 1773.078649 1680.418792 1894.131224 2007.906186 1867.829033 1721.762903 1491.465157 1388.470217 1261.539095 1047.763748 1042.082991 1160.085361 1156.127646 1162.641656 881.052809 728.949798 877.614741 1040.278855 1164.097536 1028.783270 1259.294471 1561.386388 1787.816712 1387.710959 1674.492688 1651.686103 1656.198524 1458.079713 1316.367751 1015.462362 838.324095 719.821991 656.367738 637.882010 643.198257 656.194508 653.666792 623.415039 578.259187 525.251791 485.540914 530.296854 677.670055 771.309998 1014.203032 1239.994315 1427.553347 1499.474142 897.374361 534.175373 263.240663 241.032519 259.850892 267.330991 250.140298 470.306364 568.970133 507.969759 481.019206 565.213490 780.572873 955.413867 1102.531704 1326.705700 1560.020186 1714.290937 1668.013796 1639.305070 1587.142086 1523.714634 1236.979478 1016.219306 885.512947 822.521619 837.454857 779.439561 623.036965 200.896381 180.686866 180.957024 186.287308 216.139194 292.091300 380.506154 550.457956 681.088675 657.377027 626.894643 639.120219 666.062023 675.167875 702.184985 699.621443 680.097337 717.448714 725.015976 663.994497 578.782670 489.617807 449.971666 449.920930 453.627807 456.157363 456.850057 454.670034 448.229605 442.498229 442.208189 436.622285 436.665040 434.675185 433.238700 452.558116 496.261640 552.810224 811.716274 978.933172 995.840118 1048.363576 1107.287649 1122.949095 1085.251621 1040.195553 1055.759696 1007.127356 1018.291542 1043.469763 1110.932159 1179.709331 1256.494507 1469.509436 1892.175870 2061.080774 2237.996537 2145.008743 2074.600698 2076.804850 2042.001803 2027.379171 1947.668721 1892.224409 1854.598130 1864.453781 1781.106481 1755.319622 1830.729481 1784.346106 1673.244105 1664.620024 1604.483934 1456.811663 1423.725789 1454.153564 1375.730054 1244.643264 1275.444361 1320.599711 1228.658389 1194.469502 1196.406667 837.023908 623.833680 362.482661 276.176715 233.245952 309.427201 737.742236 1133.790255 1391.127536 1299.350470 1152.944988 1064.667390 972.726771 691.313182 513.791249 472.384926 492.167401 450.348977 520.893949 546.290875 599.997156 405.276610 275.111156 291.130422 447.038488 618.330968 694.186250 770.800343 830.338970 749.532555 447.674973 373.497256 395.436639 417.261460 492.612190 524.638528 462.122203 636.450388 910.060430 1028.005665 1153.807214 1101.371177 1148.920012 1212.275346 1079.835079 965.990036 821.194539 742.489076 379.592861 209.085607 239.922223 224.783219 209.136940 318.700712 360.835992 557.634344 805.215994 1113.793094 1115.205000 817.580367 637.584399 697.651220 956.624181 909.188539 788.041378 892.237990 1062.052115 999.582807 893.293481 960.533484 1182.449357 1127.861561 886.520509 610.240162 463.527051 356.894865 602.861351 583.020032 365.046145 442.787561 751.810910 545.562787 340.296818 263.143884
2545.855926 2377.446648 2072.625654 2341.849990 2582.291094 2394.721487 2298.570176 2234.515018 2234.942491 2203.672535 2079.793197 1759.877416 1291.921993 1347.725561 1711.051800 2090.014254 2257.507105 2385.585002 2260.576830 2119.450461 2062.150417 2324.914319 2455.527952 2257.986183 1954.448776 1834.578719 1957.847131 1870.721243 1808.153742 2003.775858 2199.537387 1929.300914 1739.301121 1698.874943 1499.213534 1357.637573 1131.406138 963.377452 1026.728759 1023.523985 951.061525 799.458694 834.342384 1077.019690 1158.399746 1339.723970 1132.825744 1298.425451 1705.209043 1776.798255 1743.918393 1766.920032 1787.622226 1452.267036 1203.972797 953.497841 785.037232 788.064073 791.607838 715.130255 701.287608 666.220871 666.678052 666.270731 630.841113 581.037561 550.205338 492.834775 524.288228 643.935063 855.787704 1143.221119 1281.465326 1393.239917 1450.310984 775.831614 316.897441 244.226688 288.019115 293.285606 238.294962 270.128349 507.254327 566.144934 490.618949 492.599154 617.848495 778.044467 939.330225 1141.754275 1329.615467 1557.361748 1801.735617 1721.332167 1805.112230 1765.441447 1595.604310 1311.048763 1273.981716 1243.147562 1095.185485 812.654846 775.196152 430.642685 181.003124 180.833347 180.144407 184.904015 323.412583 383.460909 582.289316 777.773461 898.466471 781.392853 766.615839 725.212545 709.697291 700.926703 700.490113 689.948069 671.148754 650.739840 635.881405 599.654483 602.641921 686.528730 532.619826 456.045842 463.281893 468.466822 464.928419 459.859048 453.114397 454.057049 443.960919 448.741221 447.393500 472.483348 485.966534 550.758584 780.133690 787.365085 765.449403 937.585674 1045.838254 1186.027739 1314.098212 1250.567970 1205.427969 1126.139319 1123.638334 1139.828583 1159.335375 1191.052338 1320.531069 1372.236316 1359.648634 1734.717843 1964.445872 2129.202445 2150.243558 2119.393330 2047.158090 2025.710710 2009.541448 2013.651329 1944.432958 1883.987760 1778.153378 1811.632122 1737.614032 1722.757298 1745.798387 1739.114914 1684.793959 1644.273443 1612.872859 1510.859362 1425.878104 1377.001520 1337.940264 1283.122791 1369.973645 1431.639169 1350.152493 1229.695871 1396.978681 1092.744510 822.635568 498.922078 474.714459 232.936529 229.978258 409.881391 862.533784 1250.253952 1346.441848 1201.315880 974.527039 653.388017 456.036395 358.849302 348.056337 351.137285 424.215893 383.262803 466.412995 500.829936 590.821929 271.576212 335.137005 611.377523 725.689036 832.884303 891.630965 945.305886 791.678365 474.138747 358.110696 422.864828 527.467987 553.042087 742.690482 640.862457 587.460050 803.256649 1130.898724 1401.641147 1486.606518 1449.990817 1128.816259 833.448528 672.495379 510.017351 291.860145 204.870965 204.504518 205.227496 207.893547 377.183734 431.639026 636.074466 604.484636 875.985606 1007.174289 1215.959254 1003.257707 769.390940 748.997580 803.968774 1004.497902 962.719298 849.207686 999.456360 1233.499523 1136.271680 1125.008202 1211.950134 898.356814 765.020090 642.461812 404.990107 307.269450 407.642414 410.755210 303.381802 467.495833 578.428754 475.197877 469.813489 241.716264
2247.396644 2096.372410 2085.431370 2339.402269 2552.180357 2323.908616 2208.601585 2109.955302 2073.571950 2068.527743 1886.777557 1667.800490 1258.770965 1232.393504 1677.637359 1988.822141 1984.908500 2124.879627 2248.498300 1980.434842 1952.454859 2067.211773 2150.221404 2227.582556 2063.449298 2034.045618 2187.970203 2063.823219 1974.893968 2162.812525 1931.718748 1851.044607 1854.734547 1682.162174 1506.445361 1350.018408 1156.767786 992.925069 982.279382 871.525039 815.900841 804.882057 943.673745 1188.777682 1383.696738 1539.248280 1454.233825 1308.694316 1592.939169 1843.601362 1872.918568 1801.014727 1519.480645 1286.385095 1034.029848 835.518167 1089.955171 1155.620013 960.813371 818.463488 763.039771 655.326969 676.652714 669.051555 630.820253 638.651363 618.174573 491.807619 544.237031 738.840416 1037.928232 1246.246199 1381.159272 1443.659171 1066.497730 503.147299 238.152834 253.994114 293.253309 288.437766 238.000000 318.166331 578.364745 581.139057 490.501797 502.666523 655.295418 851.555053 1002.804319 1154.708104 1268.711859 1572.495996 1801.175763 1853.792595 1823.894632 1993.739301 1746.163369 1621.451316 1365.042190 1236.550202 1060.781308 795.477873 778.655113 234.603216 181.484868 182.016637 180.010282 197.733759 284.175040 449.618517 618.839985 958.184195 1055.994287 955.228418 1021.385918 851.176869 826.628809 808.255547 803.407269 815.424872 759.448778 713.496726 688.629048 658.966054 681.499102 797.727603 677.811400 483.669012 476.293834 478.829303 474.628920 466.759612 457.770974 455.304028 471.975049 474.756594 473.078569 517.608086 591.830493 702.845145 910.664961 853.265568 826.966022 1008.931065 1302.934721 1435.572988 1608.976822 1443.006455 1369.662499 1318.257377 1261.182948 1346.466436 1317.222193 1391.179035 1556.702434 1500.680151 1611.365626 1807.877276 2073.870768 2249.850794 2139.280588 2066.379215 2013.736098 2001.593020 1991.245794 1919.784578 1894.023794 1869.431289 1826.456361 1808.053098 1707.623927 1731.158220 1642.150864 1661.661320 1635.448743 1594.019810 1497.480727 1398.784661 1394.249030 1368.105880 1331.109565 1291.809978 1397.862436 1514.024235 1409.944848 1268.270752 1498.564904 1342.867737 1074.552508 871.380096 719.244815 305.904771 226.396733 302.336442 669.574097 1075.749284 1181.993380 962.322741 716.246299 499.169508 364.706277 542.283699 517.214572 389.937405 346.097214 309.773979 314.247857 308.311349 285.980918 262.478718 375.107014 621.551857 798.574611 934.576799 1000.250765 1026.991923 768.401465 478.106487 388.170721 486.497197 668.158462 730.768924 765.892166 910.705207 717.510782 743.881084 1035.243699 1277.972943 1471.989734 1336.851751 1040.340455 646.759659 472.430521 252.490563 199.945892 198.933762 205.846951 257.810587 415.740862 676.501114 726.124196 825.048952 660.979610 961.234646 1067.743083 1296.296142 1132.690400 913.309881 1023.146421 796.342551 937.476843 1164.550522 1077.780723 984.190922 1206.277893 1349.399504 1287.269263 1187.979153 975.874098 681.829930 499.856882 389.478560 281.196407 275.730949 410.482354 268.210077 401.767990 328.426699 228.115097 223.819620 228.343040
1921.817518 2005.855888 2247.460444 2424.608156 2497.768120 2311.472660 2141.810646 1985.276503 1759.280711 1652.695043 1537.166699 1522.740856 1384.967113 1208.702391 1478.704694 1703.230910 1801.316781 1869.808614 1992.611574 1885.513278 1744.016312 1694.072321 1817.278895 2207.883045 2420.556886 2333.768720 2306.673727 2167.381433 2082.870813 1899.384757 1779.379280 1580.709288 1556.569015 1555.602576 1306.602618 1314.999322 1223.079746 1029.493871 1065.140308 1016.265203 818.563553 880.059565 1087.324012 1203.742460 1380.795368 1645.484211 1773.239723 1623.029105 1538.209092 1912.185536 1781.455544 1523.293114 1370.722844 1096.689378 878.632766 1039.963590 1278.472576 1422.931314 1145.526242 911.183597 835.833874 655.723805 658.019970 652.936067 692.682409 848.038268 635.609078 498.043119 609.244932 892.841855 1159.191306 1288.431155 1426.651641 1363.128915 595.170460 377.085300 258.845982 264.566823 324.024298 242.967411 241.619459 405.562718 628.126354 580.666110 498.905110 533.275281 715.154109 914.883272 1078.950076 1231.899300 1501.075032 1625.451955 1795.173285 1918.436690 2022.457455 1820.808967 1382.418717 1316.504744 1268.662484 1105.787673 949.029915 751.211803 547.315622 180.973788 180.691404 180.713850 181.228114 198.807392 340.478093 482.689313 735.381372 962.385745 1285.833285 1199.318442 1149.101742 1017.839968 992.417358 944.425222 938.439714 884.415074 885.634116 766.047375 720.029810 787.133391 729.098024 810.372795 768.025783 667.585454 616.339258 490.009580 480.615530 474.168237 477.140568 461.513455 504.056549 512.819794 532.410734 691.248662 665.364387 863.268416 1121.285871 1157.178704 1108.479807 1331.607296 1545.401159 1677.999457 1832.618362 1729.318364 1598.983909 1558.694184 1488.452653 1639.638515 1506.361389 1743.963138 1730.140895 1703.470709 1911.869334 1989.849209 2161.681990 2125.174393 2077.696532 2098.289398 1992.292643 1959.232525 1918.038816 1887.493460 1828.176087 1826.750617 1794.441926 1780.787793 1712.529364 1705.005566 1637.813387 1636.835019 1597.124876 1538.891556 1512.874200 1461.160904 1387.391452 1328.696764 1327.502716 1340.462993 1402.135713 1501.007554 1342.768902 1394.839952 1455.220092 1505.859548 1357.953362 1217.346138 956.147941 754.898850 262.492526 232.152969 519.074375 814.140381 888.963768 752.751856 554.680380 389.228021 460.952616 636.208801 615.436027 558.342370 343.178084 291.333715 381.165164 260.153367 255.342249 429.765927 639.151225 603.475304 744.018036 1003.150851 1118.333823 1059.053255 816.904819 490.069059 395.373961 437.018272 503.836979 817.634662 925.187926 1032.155376 1004.621534 951.473119 1135.811952 1352.922102 1369.129041 1226.075987 946.862373 706.455856 323.778801 206.772922 275.827016 367.868064 439.956888 466.841020 581.730219 797.507379 1080.579330 960.994741 755.585888 886.739638 1061.630386 1172.784129 1136.122608 1028.652452 1138.072250 999.861881 871.519968 999.056737 1215.077946 1139.982547 1217.880298 1151.686340 1085.913096 951.707811 986.830636 833.174887 651.111895 449.237076 245.272909 240.179324 304.818815 246.771284 249.835218 224.883684 209.803624 235.717362 251.619782
1871.201434 2084.321205 2254.641782 2466.285056 2491.055653 2299.822002 2144.002648 1882.611001 1596.582953 1604.511033 1721.273512 1872.054016 1763.693640 1454.734047 1219.355056 1315.383546 1471.094972 1773.238174 1916.816678 1890.549839 1788.894118 1631.147579 1660.016635 2169.766818 2278.594524 2145.840137 2083.690839 1989.736133 1800.076280 1671.052103 1539.415200 1362.014959 1242.271394 1237.242119 1171.477285 1198.821136 1198.328701 1018.543044 1046.959441 860.657802 830.176090 902.826789 1071.322194 1206.522842 1372.076466 1623.622902 1854.013925 1926.712325 1725.493534 1774.638846 1696.600644 1318.099607 1163.365476 975.215988 1056.433076 1187.830775 1497.246385 1499.684955 1276.812773 1061.332482 828.475548 652.058792 646.580064 696.108655 820.474400 1028.239820 578.946832 509.879870 671.811769 953.335224 1209.813825 1314.587373 1477.794755 1056.322798 577.891544 346.808056 252.490775 225.680207 289.244243 268.685090 299.913762 495.078444 734.240058 642.759007 519.092340 544.997678 739.356907 916.888982 1075.828492 1298.134759 1604.511077 1779.402394 2020.521497 2040.016372 1923.794624 1529.494390 1202.965167 1084.844930 994.561295 822.065867 899.485409 681.685220 401.675648 178.070731 179.779629 181.256274 180.900842 254.608755 430.925134 632.640026 948.373534 1239.750477 1408.949401 1486.650673 1430.609462 1221.909516 1181.171514 1118.521387 1080.268104 990.371680 1012.850741 825.390769 841.478064 884.889841 836.841746 781.513183 702.447048 591.327707 505.222064 503.545158 570.257431 529.658953 513.020618 567.813410 670.950414 585.914195 916.808217 873.138576 762.040372 1156.426516 1446.799562 1555.624558 1357.141531 1655.749313 1833.926005 1952.275017 1930.098796 1896.341026 1874.508984 1787.663025 1787.348478 1853.989970 1851.523117 1938.650961 1986.870061 1913.276772 1999.617038 2266.411500 2065.423150 2052.098019 2048.078816 2075.908782 2009.130269 1984.080285 1919.021463 1862.558055 1837.559468 1831.173794 1810.741424 1774.532438 1715.362854 1715.485973 1724.262709 1663.292434 1611.290239 1641.221713 1530.624087 1454.495718 1388.808565 1402.025065 1365.601013 1357.627775 1412.436796 1391.150130 1350.557236 1385.211684 1436.313212 1518.845164 1407.999481 1327.353769 1258.362991 952.818840 611.041619 233.277804 249.144389 652.895143 734.798692 655.660619 435.837754 355.257256 479.960541 671.894458 654.450518 600.983534 447.900093 285.739989 424.183734 255.000000 434.257783 690.607054 778.279288 797.021266 704.558762 970.985062 933.828155 991.275050 822.050069 450.735787 483.003242 617.086602 618.630108 685.780502 1027.397033 1277.116412 1277.329219 1210.283397 1259.306859 1476.819225 1203.832315 982.394587 833.639482 410.179599 259.487355 214.138201 632.622629 789.406708 844.007083 756.466431 785.343096 920.358280 1194.213221 1095.746157 1042.374226 854.752001 933.378391 1047.430268 1168.698204 1186.989254 1202.703490 1270.846173 1082.418459 966.016177 1107.717721 1262.603782 1006.249045 965.883317 976.342274 634.284575 721.439601 891.255272 760.280451 478.032181 224.650848 223.352379 226.167721 227.095045 214.816089 203.916244 217.667220 288.142980 350.664080
1952.029001 2179.835443 2424.044264 2479.836605 2375.455752 2193.891850 2011.683779 1725.810863 1731.513413 1938.151863 1993.383644 2133.431429 1967.108205 1627.117738 1405.941416 1159.063379 1210.487428 1614.705300 1806.928908 1784.241064 1675.194811 1530.121728 1684.142029 2130.297963 2300.643961 2125.129466 1984.119899 1675.763078 1559.052773 1456.868179 1334.083312 1284.960335 1305.833114 1181.292350 1097.892882 991.882463 997.773210 896.164340 844.720123 821.885383 971.742470 1097.163242 1012.471810 1051.974124 1249.533191 1426.148872 1649.583748 1647.174995 1894.849507 2026.353203 1698.324106 1422.447511 1082.682688 1143.234833 1140.773187 1303.481481 1622.945601 1589.929136 1510.513835 1119.553194 858.773294 678.986980 681.561052 866.761673 1014.888264 1099.311905 552.274656 521.103019 813.945612 1004.739138 1226.237120 1306.930751 1440.000278 1068.040591 696.522843 294.372659 227.480579 209.295755 290.928690 300.880234 384.632228 584.102844 784.825629 740.016905 549.398444 559.975589 700.181166 899.944065 1133.725211 1407.157793 1589.944463 1557.006886 1861.663211 2018.585731 1713.241804 1364.592865 1051.585213 831.647638 768.076200 640.605292 723.989899 517.719336 223.411625 182.623862 179.304720 179.092840 195.195725 381.967722 636.207368 980.668912 1055.006540 1254.263075 1661.178380 1642.091321 1585.023328 1499.112457 1459.474618 1327.332948 1211.657721 1112.542342 1040.112635 912.104341 969.944621 1019.880235 949.266883 845.946660 644.857994 607.666466 597.817677 664.137646 694.120030 659.798630 682.354134 861.715163 895.696075 859.069377 1177.568365 1095.922494 1020.455188 1288.332483 1575.827526 1829.901537 1737.197286 1783.887020 1763.648679 1799.610899 1796.733036 1836.086482 1820.632857 1756.103291 1698.250643 1743.302881 1770.639837 1901.276116 1750.431406 1706.676054 1916.416544 2199.418649 2090.981041 1976.442526 1994.808531 2015.058276 2051.794249 1986.572664 1896.054877 1906.345463 1823.482467 1789.773340 1782.935115 1775.537880 1697.060990 1687.847598 1687.701469 1659.448565 1661.069520 1582.194155 1538.690778 1468.477750 1425.939168 1413.883217 1393.891827 1377.129934 1381.076563 1350.117508 1335.198499 1402.143610 1450.138959 1546.097109 1571.671104 1418.715381 1286.707177 1078.349773 848.402192 363.433420 220.620039 230.851855 559.483354 525.417424 403.119055 350.077296 486.597074 664.109273 700.431150 676.158195 527.715824 301.789266 318.077112 255.000000 510.064517 814.957001 930.906681 831.785820 845.884298 1026.100481 837.735408 802.157166 771.875100 516.319431 432.210556 617.104164 946.046850 772.341925 954.795638 1217.502139 1380.912320 1375.220809 1490.825759 1350.583903 1228.901645 995.366982 827.867027 711.360523 318.412204 195.275223 535.331193 658.479945 941.459147 1107.167439 1022.468972 1068.538996 1231.592213 1314.587304 1163.297844 946.415295 1013.731703 1058.199898 1134.540260 1192.493630 1213.367979 1350.088592 1216.002835 1100.815389 1221.684097 1074.579557 818.159431 794.613525 892.015765 643.476629 562.191360 778.957807 598.499289 355.385598 207.537973 212.226222 215.069148 205.712861 204.340441 260.425898 346.599757 337.088458 382.172332
1884.567669 2118.722790 2330.150661 2572.018874 2369.330683 2183.342572 1913.084946 1782.741635 1849.798193 2086.897236 2214.420101 2303.259356 2015.612812 1797.139124 1324.312760 1038.842533 1094.515757 1479.874762 1615.067973 1694.075183 1458.690298 1614.786828 1833.515590 2027.642987 2281.637808 2080.849890 1971.633724 1723.075015 1698.178337 1623.588334 1569.689178 1621.371627 1624.434841 1452.457441 1240.481745 1072.805741 920.537788 814.522226 842.160780 990.483980 1067.882737 1341.867796 1224.917855 1142.744604 1186.231422 1214.885034 1339.867032 1545.675023 1718.845688 1989.597962 1603.545240 1311.048261 1233.415487 1372.127978 1378.896644 1495.711373 1701.979741 1713.927296 1334.725828 1048.477987 858.350302 690.860463 828.882596 1021.868912 1202.304651 1157.633528 586.962643 527.882031 1086.240066 1085.003028 1185.275083 1294.257666 1226.992346 1024.327594 912.866619 232.883132 171.066756 211.603214 209.747803 300.520688 507.118725 669.261791 802.970522 722.542302 573.989964 599.936971 688.714636 887.078785 1100.899342 1301.708383 1270.366679 1554.207541 1877.957309 1694.457662 1391.348007 1149.694842 860.166709 701.353801 605.597550 500.386659 408.796888 327.195240 209.801135 187.945322 179.035902 180.167920 304.764014 682.866935 1099.870990 1111.351204 1421.308781 1631.024290 1856.354936 1820.332015 1772.705281 1753.203358 1696.570796 1583.522289 1366.149821 1227.439306 1084.496888 992.844512 1035.250838 1089.333914 867.442468 673.167357 554.303625 700.371743 806.843949 934.176646 984.520493 772.839455 925.073925 1139.844865 861.901092 1174.999817 1274.671319 1246.673026 1336.423475 1287.829528 1674.480575 1673.963828 1699.422422 1735.569007 1651.729877 1771.739902 1699.637033 1742.096876 1721.399544 1751.668469 1682.235437 1650.630808 1687.804519 1794.883419 1676.738411 1630.703829 1896.512485 2180.988011 2082.638032 1962.826300 1946.017353 1970.132032 2000.731404 1967.501027 1873.882925 1914.764198 1910.124557 1784.319721 1782.358020 1755.793377 1710.300767 1641.576450 1635.782239 1595.103895 1572.215240 1558.042799 1500.316622 1385.351288 1403.114543 1382.884748 1360.547264 1363.510990 1356.743980 1344.932123 1336.022348 1418.573060 1514.682421 1492.198224 1430.472805 1231.701436 1147.342690 1097.107460 942.326455 568.495899 241.497919 217.879638 214.098127 218.218048 260.779473 408.599499 638.773265 755.040383 640.058715 714.882168 506.615969 312.126151 268.219785 255.000000 540.132890 886.635233 970.808874 1044.028122 977.399563 1039.291267 740.957309 567.303899 608.580760 518.592709 470.521479 769.375830 1063.103612 1073.152165 987.775015 920.472962 1088.891486 1113.105439 1218.284678 1056.044080 1095.561600 1082.200830 955.590155 762.698143 484.538228 193.263989 303.473875 563.145120 808.188165 1162.521643 1242.856153 1274.080172 1272.653998 1283.345953 1250.234668 1049.777034 1150.163423 1165.717762 1236.338743 1313.929245 1349.168306 1292.995260 1390.109803 1271.767398 1256.251375 952.528963 685.889883 633.986866 784.603525 463.557555 473.747766 548.584536 299.402462 248.139331 195.060546 198.997562 193.635422 238.077674 329.791219 258.327230 297.615089 316.700858 275.526853
1952.458368 2189.409590 2414.985827 2589.985513 2409.480315 2216.655724 1932.590108 1865.288801 1989.597498 2222.866837 2395.668720 2275.039331 2024.820298 1762.141595 1380.242811 1068.166621 1017.183780 1191.949829 1317.041684 1392.941850 1454.053170 1597.003993 1750.161872 1977.302661 2106.884523 2070.846460 2048.241892 1989.772445 1891.336161 1792.027501 1848.398014 1740.412492 1723.214285 1413.801114 1227.402241 1016.074856 789.386645 797.902989 913.702053 1145.923228 1332.422697 1447.865975 1450.692677 1225.000681 1343.676096 1356.310970 1350.211551 1458.010478 1714.285073 1984.269468 1599.362376 1623.889153 1424.336357 1567.470172 1725.830279 1649.606732 1802.942341 1651.541902 1181.493428 953.926128 783.681083 828.891732 1085.379664 1149.114196 1357.725700 1025.837763 601.277058 554.968505 1120.603038 1090.645893 1158.537853 1271.042429 1091.550407 911.948367 631.106572 230.866478 195.582218 194.623666 236.584883 365.052023 623.821769 736.268496 764.531115 696.334665 585.395981 627.234612 709.901978 801.282591 912.487582 996.155563 1282.735842 1623.472815 1661.908616 1337.714156 1136.084387 898.750446 722.952957 596.059413 596.029152 621.219357 573.381494 346.763893 196.583676 184.219914 178.869287 177.668750 432.957601 998.812875 1132.344277 1242.612490 1442.667815 1672.965971 1769.497367 1889.373027 1972.089493 2003.203317 1967.714606 1815.945714 1555.120320 1423.133509 1215.074833 1069.382432 1119.176701 1067.231555 834.353637 644.640095 683.920109 815.751591 1127.990518 1215.760157 1154.961418 1085.725262 1213.963623 1103.962522 1093.771539 1353.305567 1389.061843 1373.494761 1497.864886 1442.368425 1514.469764 1571.864226 1642.506062 1646.885352 1581.712684 1676.117997 1605.763982 1663.328095 1644.902532 1673.855934 1714.783087 1668.244232 1608.896318 1668.202987 1502.532437 1574.653163 1838.650828 2119.105555 2106.566501 1982.784084 1870.226104 1875.121338 2007.720871 1934.203885 1830.564767 1911.979448 1818.056312 1817.507293 1785.161361 1700.545638 1666.613049 1656.148993 1608.145996 1602.321356 1552.786002 1525.175200 1429.166471 1400.670627 1391.576417 1372.950988 1381.189968 1365.700757 1353.651918 1340.483515 1337.083569 1417.678867 1412.167626 1410.417295 1485.596220 1336.889206 1213.332632 1064.609629 1046.621549 926.473788 591.706555 333.964241 395.289385 337.323812 282.855995 462.855058 558.216855 791.362395 747.483442 590.005093 442.748162 260.144358 255.000000 287.868388 632.748369 839.654900 786.214920 975.819388 1150.287760 1139.531707 974.928333 734.690046 544.352701 457.291235 521.391031 805.272117 1169.500182 1321.225147 1025.488062 709.508805 796.190959 961.696235 1017.655626 801.868951 839.252971 845.882075 651.866806 445.229637 222.020912 188.808602 373.131493 643.273288 792.971770 1035.373228 1012.100774 1054.556270 1044.819257 1101.034965 1205.347393 1177.951741 1218.050890 1281.295568 1299.315849 1446.244588 1317.350370 1384.654890 1394.242580 1405.623301 1180.731280 820.715455 599.702659 468.167757 553.185778 421.270604 314.300685 338.559064 210.847852 201.892985 186.094081 234.397984 303.084108 247.351594 260.354485 294.360120 231.995928 252.621909 227.362742
1837.035034 2080.494139 2330.473978 2679.378589 2474.255688 2243.130003 1968.739215 2090.204289 2111.193723 2369.003756 2460.002947 2252.416476 2127.514360 1795.692583 1399.070099 1136.045311 1059.063374 925.134845 939.771149 1037.428555 1241.899321 1442.365982 1551.580570 1678.378483 1696.718104 1826.937859 2102.002562 2061.277849 1978.759971 1821.637667 1705.509901 1519.439117 1563.352490 1432.454758 1154.183448 919.222791 762.594407 826.883426 1025.506357 1304.681829 1587.362009 1659.311310 1541.473978 1391.527253 1343.483260 1624.139394 1451.584201 1542.970953 1685.481643 1944.784651 1652.338285 1690.440098 1767.992680 1716.054178 1891.767469 1873.345815 1657.375612 1317.381558 1070.959959 849.383227 795.622569 1033.534178 1358.599065 1395.130830 1482.547247 857.508302 555.159102 654.114476 1063.570468 1088.918406 1112.077815 1040.641076 935.394580 643.835547 429.762267 153.107782 143.525871 169.449822 250.754020 419.762150 539.069405 624.145579 697.208071 603.250990 586.167457 665.444672 793.038787 937.211980 973.130713 1155.983988 1483.614792 1688.535153 1327.286577 1112.959488 968.462632 818.058683 717.057479 759.055495 882.983422 967.806791 846.516499 532.800355 179.947553 178.263046 177.389149 178.456733 476.368977 930.789610 1086.238293 1235.955882 1440.123826 1631.837891 1730.792493 1836.317976 1837.801461 1888.240684 2061.274047 1961.734112 1837.480762 1685.389317 1348.170848 1167.674754 1068.281396 953.753717 758.665950 594.845971 861.523359 1216.888145 1184.201490 1464.556560 1417.276397 1313.461151 1394.698010 1270.370274 1281.621081 1288.277425 1324.707333 1377.529613 1462.299814 1489.408013 1445.410170 1535.101128 1580.732204 1580.877163 1573.528867 1632.774489 1531.471351 1599.427764 1533.487002 1581.464817 1651.625800 1583.525544 1550.089958 1618.167782 1394.975682 1499.431178 1736.486904 1901.024007 2071.777143 1966.195043 1805.543454 1879.599425 2015.567630 1917.975559 1842.751963 1808.002237 1780.435607 1823.184264 1726.561290 1662.029552 1626.771577 1675.727140 1648.918746 1623.319914 1577.154238 1533.608757 1463.907934 1462.873137 1439.055933 1409.624382 1396.680361 1355.601229 1349.032531 1329.643109 1352.070105 1461.613621 1396.114121 1372.580691 1498.119919 1311.427655 1195.446806 1198.610820 1110.755294 1029.643400 981.555868 909.477662 721.403861 519.849299 224.133492 287.392619 393.498056 578.403698 836.397060 733.182775 376.001079 255.000000 372.373272 474.411108 595.092521 590.227795 658.264797 925.074518 1113.245064 1059.790305 1039.920279 881.328198 638.982705 474.864406 570.870777 676.898525 893.092038 1089.075433 818.471082 648.638528 607.808077 869.995668 911.127718 618.154417 770.421659 947.302657 599.428031 287.792852 187.818883 441.678445 669.272283 919.921897 1013.504477 790.651461 746.998589 790.734947 836.286679 946.059660 1180.339047 1379.498088 1446.600110 1484.496832 1495.175463 1454.907605 1369.194633 1450.260977 1435.225029 1295.935332 1202.397236 1010.430889 660.093619 416.292473 327.568686 377.168582 267.554705 239.490179 254.316452 298.423168 217.131713 186.300676 246.544676 268.220039 246.673164 222.092848 194.428601 251.926719 241.988563
1922.699996 2130.509569 2376.047528 2670.784844 2505.486169 2402.668488 2291.844800 2248.831144 2230.728940 2466.733079 2299.749890 2121.451112 1866.995176 1613.384313 1316.153288 1365.198886 1312.757583 1063.010550 955.163191 907.340977 909.064443 991.145665 1187.142641 1466.391434 1434.500376 1767.205432 2027.054138 2073.947580 1983.947132 1861.113832 1704.697806 1429.366638 1240.872434 1316.101663 1129.104555 852.916340 743.034663 820.855857 1143.706737 1320.303951 1460.806723 1558.000140 1794.309453 1673.712421 1419.295066 1643.005572 1705.428532 1710.819992 1728.438367 1959.310795 1896.725147 1932.022502 1892.162166 1776.072839 1689.182695 1701.369796 1401.814554 1168.774573 953.278032 741.743990 971.748402 1233.114769 1562.279282 1526.422587 1398.474453 657.271736 578.378962 826.133155 1081.641650 1104.458599 1059.111167 917.322951 707.653791 511.639624 133.281914 124.453826 133.530034 149.974641 376.046246 379.443905 404.118441 487.689348 572.449901 564.564683 621.433234 692.251145 776.237327 880.105548 1154.912020 1282.487724 1640.782583 1415.643004 1089.148072 947.840357 923.934128 823.734937 825.157207 1063.151216 1097.691610 1077.308059 774.094317 417.712206 194.164167 175.834220 179.092954 183.100081 490.178959 881.963744 1019.006515 1212.639408 1430.163375 1589.527607 1714.279632 1736.620516 1847.469804 1832.351816 1920.690338 1945.041137 2036.379851 1824.942299 1445.119084 1207.025779 984.021961 785.487586 722.893506 743.465564 1038.093897 1188.392194 1292.862064 1355.579124 1401.334544 1431.726540 1450.075159 1318.080874 1256.564238 1335.345254 1357.726277 1376.070965 1385.978839 1427.510086 1445.116503 1491.528230 1529.869726 1512.178941 1502.481234 1549.729110 1529.670190 1524.312747 1534.204776 1509.841029 1604.927811 1576.159210 1424.501922 1524.897722 1342.208788 1433.310890 1563.481625 1719.225929 1942.241017 1943.515952 1797.638193 1820.077174 1992.750823 1861.338247 1771.349149 1667.186408 1828.807705 1812.491298 1730.228256 1646.366863 1596.111032 1632.825340 1647.003547 1622.333519 1581.889548 1570.146764 1512.912303 1489.147054 1467.537108 1448.684931 1416.326933 1357.409797 1324.957485 1318.084955 1357.618892 1396.038709 1428.718063 1339.290835 1378.796387 1391.544373 1335.648409 1333.024748 1270.366902 1212.537651 1092.757730 1030.324435 817.639295 649.156285 493.711865 437.821609 270.158138 537.212927 814.533165 694.181388 331.885862 287.960153 361.004326 384.069835 573.404771 666.496020 740.239816 1006.204035 982.232339 865.807514 825.005802 734.737007 537.020430 457.375335 477.407417 630.206290 847.504366 1080.482822 952.954128 675.091690 518.666037 714.720723 705.694451 519.285800 696.704787 856.575439 638.400395 218.645816 257.047204 594.112900 686.953319 851.397387 857.967956 659.439935 690.620544 745.770232 946.665698 1035.646335 1089.409463 1214.687225 1348.764070 1469.656511 1496.573820 1483.740926 1425.649739 1426.531644 1273.930751 1153.247104 1002.928370 824.499325 597.823707 463.592779 285.930932 261.200713 265.835242 316.492118 339.593577 253.418870 272.101873 172.736761 235.333595 251.362119 248.532236 198.603670 209.144385 273.847838 367.410179
2043.122748 2231.471170 2437.898274 2632.035894 2429.364722 2254.927901 2312.232270 2393.592681 2404.545566 2469.292271 2211.614138 2016.277410 1731.988119 1516.466876 1528.146042 1778.252491 1528.163072 1391.109470 1342.032329 1271.947571 1093.456841 905.470742 906.791107 1196.791662 1506.012949 1723.167576 1799.321511 1993.974238 1760.696583 1769.174469 1747.766261 1657.855928 1390.995581 1122.429275 996.851436 756.515062 739.513627 880.171755 1036.262540 1172.421514 1369.502054 1595.288859 1835.442074 1699.699761 1535.182106 1682.031642 1924.732364 1801.372925 1772.151577 1740.760580 1850.101479 2020.713668 1983.173775 1716.409302 1403.086448 1349.335850 1338.882505 1108.142339 833.528394 784.041630 1037.139609 1372.461673 1555.225568 1432.415272 1211.896232 636.525861 614.466102 1040.987160 1151.258189 1233.655445 973.256952 765.151658 548.114792 207.012200 117.193674 122.231295 127.805203 204.226094 459.653520 572.812704 549.115876 496.814191 571.242423 605.557352 675.991037 773.708642 840.406998 960.774785 1182.334161 1430.088263 1432.491022 1177.631649 962.154005 906.911447 893.742628 924.782818 1015.144892 1156.951804 1260.127599 972.292765 748.266573 421.977542 222.056309 177.486230 179.367117 205.083881 691.902345 792.829031 1009.921661 1186.166342 1373.785755 1537.544215 1629.233861 1734.055472 1759.581454 1784.840555 1839.971003 1956.363454 1802.709305 1631.283972 1419.542721 1175.074878 1036.263354 882.081855 713.305220 971.404403 1221.665515 1267.871922 1241.636269 1310.991661 1315.510384 1347.161193 1374.045933 1309.936868 1194.027115 1265.353653 1437.570764 1513.608328 1480.561631 1420.359184 1414.163951 1411.544474 1458.250883 1451.197453 1442.917569 1488.344999 1506.089717 1385.498619 1428.875254 1401.099483 1505.333654 1529.533727 1407.401508 1310.968627 1283.583892 1312.596020 1432.818686 1589.230000 1850.662975 1903.523077 1783.318953 1789.563440 1928.479415 1826.987396 1736.987303 1647.987634 1855.114006 1778.703526 1717.230728 1663.674319 1539.992862 1636.509164 1714.914631 1747.800583 1600.780928 1640.110703 1543.461119 1497.457937 1493.571612 1479.744287 1430.851741 1384.464514 1324.088112 1306.643059 1313.241983 1394.187826 1448.874428 1327.672702 1423.827377 1426.779112 1523.103499 1550.935785 1420.106454 1310.398420 1221.045261 1120.882004 992.593133 832.323618 683.228365 550.896952 459.051158 482.313983 599.977235 734.649059 340.453608 451.151301 560.007792 606.564125 856.260216 939.562547 987.161960 1128.954472 1144.181366 1054.404608 961.327309 775.698519 582.836064 563.621842 670.179725 665.214716 900.214121 1096.609173 847.115099 701.089749 529.178829 478.143255 499.942337 441.121954 582.467238 603.721204 481.594738 190.433959 363.109902 250.590488 397.676348 699.621139 728.672594 587.097219 658.735662 911.924518 990.065110 1125.397896 1312.609253 1410.678484 1440.192306 1355.821365 1419.708069 1484.193728 1354.200381 1228.951832 1165.855284 984.435920 812.470819 731.873703 617.836403 410.747615 289.949521 256.340273 239.334373 266.892900 288.924392 207.101384 224.374243 171.276247 166.421992 178.807003 235.522216 206.526733 322.137408 288.699721 353.513551
2266.617795 2373.225806 2515.285173 2709.095044 2553.114538 2302.818403 2208.891497 2264.014157 2362.762088 2404.488220 2137.022690 1845.600109 1864.937383 1931.491078 1781.281335 1740.800161 1462.475021 1575.061275 1567.719313 1563.167741 1460.440980 1312.413200 909.610310 1019.822367 1412.274259 1470.678933 1643.496565 1781.213982 1676.680034 1503.205717 1539.489357 1560.776189 1362.180006 1162.907901 886.091108 678.251049 795.096824 998.293331 1271.896828 1338.261216 1538.532945 1625.069538 1914.955985 1719.623152 1748.045311 1801.304834 1844.946997 1673.125211 1480.422026 1471.890427 1596.393856 1833.760077 1973.237008 1695.740763 1363.588690 1082.504547 918.613311 838.388338 766.939299 823.999894 998.784673 1445.574530 1583.910686 1575.855337 949.379229 674.300126 686.519012 1128.230477 1161.072657 1313.980312 948.899155 638.786908 354.308824 117.763731 120.018006 122.600979 159.823525 439.931259 594.531843 836.050530 759.649800 638.460338 681.279869 714.378952 775.953234 865.814019 958.769112 1092.337679 1335.467193 1562.872283 1170.343587 990.870284 900.565576 910.392887 1037.433721 1106.700522 1222.822394 1275.673519 1276.709154 1191.891445 1006.624831 665.522773 346.605155 178.480017 179.140298 205.107863 504.054648 761.522357 971.592785 1096.086767 1214.567558 1405.859152 1573.826131 1669.470077 1617.939406 1775.637776 1882.441689 1692.424050 1512.742462 1346.924818 1205.502185 1097.901406 1000.092202 883.532021 758.187954 1049.639725 1202.251491 1281.092778 1216.704137 1224.959132 1301.619395 1362.899064 1334.564120 1313.447880 1214.473377 1180.461178 1386.054112 1507.024689 1532.179168 1470.553523 1446.824891 1424.297090 1391.003476 1379.294803 1379.099856 1354.688314 1341.950645 1348.418666 1367.921980 1300.515598 1402.739687 1402.057748 1262.488178 1273.263076 1257.152884 1208.174119 1284.917400 1478.031832 1712.070240 1934.714439 1708.677331 1795.527809 1889.838229 1785.464680 1659.772480 1592.387150 1771.625284 1750.012380 1727.859235 1770.548422 1531.515450 1591.999407 1703.245345 1682.825222 1610.526611 1621.242381 1515.668267 1446.188471 1386.305705 1390.887110 1463.261707 1434.808325 1381.185183 1311.272939 1290.446002 1377.745754 1430.801841 1345.570636 1494.236704 1476.675304 1573.802621 1599.227202 1423.237499 1258.574447 1180.814616 1052.884063 879.428648 763.977970 746.954300 596.401825 500.933176 387.248427 669.170443 623.258485 307.117808 460.391753 742.641745 855.871066 1027.701604 1111.709273 1167.866768 1187.614114 1119.966582 1090.547167 884.588351 807.386912 513.048329 734.502982 842.670463 848.572738 973.094191 1169.506624 1065.493842 943.079078 575.006803 491.927210 429.120838 304.948086 320.156267 346.167875 493.715098 188.920341 192.011565 207.645248 314.581731 632.191084 625.248958 398.267275 693.415660 807.462385 993.140740 1200.488275 1311.817399 1407.274863 1361.930388 1310.059348 1436.905502 1350.496664 1167.647295 1071.618314 919.435140 833.459707 737.888162 536.934983 470.929729 325.829308 319.885699 373.671195 234.466820 223.650040 218.686976 206.989711 180.343928 182.756618 162.508730 161.149544 208.064279 202.398147 329.728036 233.326146 237.188382
2458.730801 2500.289618 2555.961816 2623.393710 2502.130395 2318.762157 2151.368832 2179.816069 2315.830844 2440.931131 2217.641754 2007.500912 2008.759995 2098.537084 1725.907630 1519.897183 1600.546183 1861.814379 1760.194936 1843.704289 1611.461794 1419.608578 950.954423 865.895529 1245.057709 1279.406231 1490.215818 1434.588488 1623.465098 1339.195372 1234.725320 1253.483633 1000.732187 909.413561 670.115073 784.769237 870.139406 1005.080292 1137.966971 1370.572387 1441.666299 1691.108365 1934.201531 1843.798974 1811.571287 1853.612301 1591.395741 1582.656362 1341.280339 1473.623540 1531.671201 1766.477619 2013.577452 1717.140094 1521.537168 1436.955130 1195.630758 966.460460 787.925561 750.348421 979.832615 1519.922628 1755.986429 1366.475923 913.553434 782.286490 787.683404 1184.884200 1169.009747 971.063422 883.705808 608.520331 122.204036 120.685108 110.163111 134.280817 401.416480 551.492783 742.095122 899.366632 967.866604 754.882384 834.933319 825.804337 974.020603 1073.420923 1163.028752 1185.973870 1482.686429 1371.285332 1047.857610 935.932011 926.961304 1038.280022 1096.352639 1218.214963 1198.808944 1171.476121 1047.645541 1136.875747 1146.057650 664.520503 401.757503 178.243522 176.529425 200.145927 530.989407 720.679180 882.833470 1048.766827 1175.763103 1381.349412 1576.138454 1471.934551 1424.003387 1693.000169 1893.368724 1803.508558 1396.943156 1213.031570 1093.669017 1089.692246 981.151628 862.693588 1088.788932 1127.768232 1170.379004 1188.081405 1171.844065 1196.079374 1285.873866 1357.909415 1359.855064 1298.661136 1236.733519 1096.294981 1318.694196 1470.109446 1554.862121 1505.410014 1448.717339 1435.317917 1472.454775 1447.461283 1455.506574 1455.214093 1481.038335 1496.995651 1490.049363 1400.087854 1283.906723 1276.603923 1362.215262 1292.575109 1261.125894 1245.218737 1220.423169 1366.455147 1556.810524 1822.211142 1679.634105 1671.821707 1837.838283 1757.672094 1637.465519 1576.481357 1715.275051 1679.391905 1652.725837 1646.074140 1511.073091 1568.064291 1663.981740 1596.394373 1556.080112 1620.413417 1581.146395 1504.104176 1456.093287 1419.507285 1390.151449 1398.713975 1340.416051 1326.745227 1344.516620 1273.202354 1313.032956 1356.340100 1530.137247 1454.008046 1511.873659 1513.397819 1397.311313 1216.990602 1122.598594 1033.381278 930.025249 820.755782 773.967242 731.954993 460.663750 507.727256 608.802512 454.639642 342.906570 648.874019 824.032028 951.097647 1174.933124 1263.662135 1188.960977 1055.851030 1001.728685 997.519155 1022.997983 682.799401 554.465692 651.475534 843.846681 1119.384439 1138.243984 1402.716367 1213.705824 1055.500444 929.248059 754.104937 555.137892 506.234366 585.810705 328.184897 499.399326 384.704102 211.946089 209.754085 230.535008 525.370625 520.834913 370.490306 582.156784 702.738542 874.521572 1037.331157 1206.063738 1210.462672 1105.181803 1125.754934 1310.544000 1277.018371 1047.285993 822.713784 678.211956 721.546858 639.612094 511.462967 376.051530 409.835313 399.214517 303.244456 245.117861 215.090534 194.310425 184.108898 186.076281 228.485165 259.550148 269.083657 186.730645 153.125271 179.948896 172.622523 219.447272
2510.077337 2347.925987 2435.965237 2699.375524 2626.630504 2272.999503 1991.733159 2081.002080 2414.383370 2191.496296 2165.027312 2184.005156 2204.785951 2042.554180 1754.058895 1680.347472 1937.398482 2062.748504 2021.576478 1883.031278 1774.184661 1503.187460 1033.711362 857.074891 826.716594 1040.548439 1078.612907 1163.752562 1306.882505 1252.475436 1047.187976 986.813193 849.791612 716.531833 615.122547 832.412324 1035.764503 1190.093038 1245.032361 1264.221471 1332.699846 1528.371166 1746.028321 2099.725732 1834.611999 1769.356231 1509.202791 1352.218858 1235.857176 1201.305012 1409.958413 1656.196345 1958.545989 1855.612200 1900.525242 1598.375990 1320.014936 1118.913654 820.893979 660.343256 865.493593 1360.031354 1599.796480 1169.599580 911.234648 865.580510 884.941716 1136.070024 1020.776863 768.084563 710.348027 304.001975 150.765114 109.413513 108.652225 352.322157 542.620934 704.728175 826.176236 966.185968 1173.678444 915.994746 932.097848 1096.216026 1201.247087 1272.179111 1387.454513 1489.341926 1643.002555 1263.277131 994.004738 951.847565 972.454669 929.778822 1022.972842 1108.460152 1073.995429 942.018802 858.034915 882.140106 801.626063 666.831841 357.587496 177.504951 183.213780 227.934474 309.951136 432.609533 722.313704 892.924498 1110.119089 1405.171417 1380.694480 1242.539885 1253.790374 1421.924348 1716.038756 1925.258208 1666.402058 1410.657128 1269.131794 1117.417340 984.326323 1086.114450 1098.287037 1140.363382 1214.996784 1169.652833 1138.024565 1179.012505 1209.937951 1279.900485 1326.983560 1296.853331 1183.468624 1004.042841 1276.352101 1431.300493 1521.616108 1522.426232 1476.367648 1392.986019 1449.507441 1493.440025 1493.984159 1510.416248 1563.884662 1618.495459 1569.098160 1506.595489 1428.062253 1423.150242 1423.705587 1396.532931 1349.779076 1255.842918 1138.819984 1272.794501 1467.866697 1686.902669 1810.650865 1491.503598 1773.735783 1733.572615 1581.122691 1593.690704 1798.285831 1741.895126 1689.094645 1610.458668 1437.296792 1667.452414 1657.632276 1563.789149 1555.853588 1538.960134 1655.032131 1568.323380 1541.641750 1516.471662 1418.253189 1420.100573 1424.698394 1422.654569 1459.473264 1442.772285 1290.442016 1363.090537 1366.535025 1386.286863 1384.208421 1400.985093 1422.962719 1337.465468 1197.663361 1076.359686 1036.344497 917.911128 821.928461 745.469383 439.759949 438.747114 414.430495 321.894702 422.943588 476.844366 756.673577 835.816065 1097.490223 1142.023162 1322.071981 1214.975513 1226.563634 1177.774184 815.522798 579.340112 684.315625 839.263832 1064.875333 1362.255171 1498.623999 1458.776145 1259.757234 1103.241390 1056.799316 849.930606 722.269120 589.454472 624.340648 349.428046 301.562375 587.857845 363.390098 238.800943 203.679322 280.872390 457.489005 312.317963 377.616804 451.230491 670.469759 937.253501 1081.484712 937.076874 940.717405 1010.508983 1158.711774 1225.580944 1090.277489 900.469617 700.332162 503.417151 540.974154 394.072133 324.083880 361.709995 314.244970 236.092829 216.407609 243.492357 279.605456 307.440499 389.731623 368.530628 262.054725 215.245627 191.002675 153.222396 158.942179 318.868779 320.140399
2434.482653 2361.112301 2336.213816 2375.656790 2508.301075 2124.681910 1843.414844 2159.707618 2442.975734 2177.069447 2377.516513 2391.582558 2247.166875 2075.874482 2004.886095 2004.787408 1900.235254 2069.495669 1973.995913 1866.745293 1718.403876 1367.959496 1218.052328 985.801372 860.086602 775.417780 741.462096 792.733133 868.763982 946.149876 866.242747 726.935133 768.178809 635.675137 749.902654 932.443527 1105.954031 1225.428337 1380.545610 1565.734048 1521.629003 1731.312924 1874.943809 1891.532511 1693.446647 1531.917557 1614.132790 1270.811722 1091.241177 1237.485738 1419.922477 1680.349318 1952.023896 2016.196242 1927.011549 1598.745631 1297.934024 1136.297902 1000.877550 651.693265 730.795443 1129.144367 1353.853149 1054.161337 967.054765 842.371210 891.444473 1082.614026 746.047217 576.418086 476.884407 264.797426 282.339371 100.919087 149.781998 426.193780 607.844601 696.744752 769.967717 984.597995 1225.172782 1140.469104 995.853245 1204.902891 1335.797628 1558.172971 1737.916269 1813.420429 1544.119058 1147.528266 910.321631 889.990253 955.691230 840.593554 835.995848 774.189138 740.707115 691.541223 641.838387 621.601714 618.207028 537.191898 283.580734 179.071230 181.867080 214.182744 331.843429 652.793695 866.202994 1162.109938 1036.594038 1183.445314 1038.915345 901.237590 1148.542094 1399.391600 1757.582814 1974.898698 1786.165095 1551.439753 1530.633192 1301.818588 1093.338712 1031.893693 1097.056614 1166.205266 1262.210141 1133.802208 1128.958395 1134.788561 1147.283566 1206.110262 1281.844354 1300.327866 1161.360262 984.546298 1232.186885 1430.881776 1423.567319 1486.623755 1442.551176 1374.964647 1387.522950 1486.637829 1453.744087 1437.797788 1463.934683 1544.802220 1603.333066 1599.317093 1643.097256 1594.735611 1617.529410 1577.841779 1546.762068 1485.152439 1243.692580 1201.256575 1324.106478 1576.639610 1853.726270 1532.698888 1636.248855 1662.370587 1519.193627 1597.184598 1762.629557 1685.751243 1670.415363 1557.906357 1399.072582 1656.561900 1663.650521 1633.027906 1548.546770 1526.320211 1635.511680 1537.615360 1469.779159 1429.806329 1505.033666 1530.132505 1489.127513 1537.398202 1553.446847 1477.090152 1381.795833 1223.968529 1205.725797 1245.165848 1406.230149 1399.300062 1248.617885 1236.308761 1067.146932 923.776415 1010.117369 972.176036 914.683912 841.954952 486.935242 195.546660 478.497939 537.697382 647.589026 776.988843 680.950368 742.998174 929.352357 1121.116406 1328.981868 1305.010656 1198.968310 1062.057649 718.195142 735.922456 830.801060 913.727431 1419.491453 1539.152659 1426.026053 1402.563699 1233.201270 1158.049754 945.455009 689.699904 453.095625 372.328113 424.312092 503.999960 300.357437 299.933898 312.189345 279.296063 247.241449 204.971431 321.945493 254.731319 401.619757 578.470904 806.086016 933.295780 863.684667 736.299153 773.997195 948.322252 1039.604660 1025.741042 973.635799 877.288458 689.285647 535.170085 508.170799 408.742815 269.739660 276.336389 234.195117 253.458871 272.156439 332.128757 366.198692 380.484205 283.387713 311.470522 253.532677 307.601388 309.877475 221.724471 141.678173 165.272777 160.331187
2366.067820 2319.794427 2146.773569 2082.574783 2190.335478 1927.588760 1818.069831 2145.805097 2412.571962 2393.052226 2520.386028 2382.747878 2074.709298 2166.695725 2082.784941 1904.032026 1775.741100 1793.412088 1781.322604 1650.577228 1387.073996 1492.435518 1374.853337 1295.484979 1075.691703 1023.513509 941.406676 794.062243 729.052206 712.744253 628.292791 621.596846 645.521169 544.602723 795.408565 1052.868062 1117.296510 1272.181023 1330.327906 1513.904219 1799.744121 1729.426012 1978.226737 1741.929886 1523.702886 1377.935015 1424.338823 1302.948588 1015.581749 1203.255807 1469.983125 1814.688492 2039.399236 1825.466692 1507.361697 1404.237759 1420.337303 1210.759623 947.906453 611.279588 627.237207 926.616715 1110.843796 975.796058 1044.761705 790.743085 731.875666 917.510452 470.555408 457.441898 362.169330 309.325705 161.352443 101.306891 155.066821 402.254870 597.254837 650.750895 814.623410 1126.789115 1378.959555 1394.901981 1132.922065 1294.486928 1455.638544 1614.046855 1822.928256 1591.243626 1326.425028 979.532945 860.570805 817.867199 747.556600 735.107709 619.133741 582.027038 467.066501 492.655617 612.385017 608.233931 531.893290 419.699733 188.767098 183.542865 188.300340 189.660850 382.418672 794.118182 888.285915 1058.200188 871.520989 850.986679 752.076490 1040.802519 1280.822371 1534.347939 1840.610946 1789.454832 1784.192486 1729.063342 1600.476294 1390.127733 1191.713726 1064.782153 1036.087813 970.112249 1099.484928 1146.179439 1155.160661 1104.320377 1150.241572 1153.750202 1206.737061 1287.570372 1108.551270 927.196051 1140.520267 1342.714492 1438.266593 1430.411179 1491.665723 1445.746420 1386.473241 1362.491145 1406.538391 1475.772906 1483.158156 1547.846251 1526.277343 1572.828034 1710.671335 1881.488746 1925.285297 1914.167993 1821.997395 1540.237513 1336.218905 1143.929884 1204.539474 1421.106314 1714.631336 1419.023923 1485.370027 1606.720169 1449.845947 1670.773887 1749.577368 1669.421979 1646.213800 1515.675451 1363.462163 1574.487422 1631.008875 1652.336827 1596.507265 1479.857411 1626.367508 1615.416393 1548.282303 1566.109153 1512.113893 1598.174314 1605.552186 1611.137330 1621.018596 1620.578833 1506.356724 1395.422774 1356.817196 1084.982977 1394.725965 1232.403168 1143.316237 1101.300307 1070.639201 997.671623 814.383002 785.643061 766.847990 775.335056 467.206420 200.902003 624.238135 883.289771 917.599802 981.475373 959.927018 860.668814 1073.426167 1184.785257 1331.168561 1279.577276 1245.896512 906.264197 759.132245 955.913283 928.769072 1236.411668 1445.512540 1430.058382 1374.872133 1271.960403 1175.175574 891.767685 704.748844 669.927002 581.386183 614.937074 425.960749 323.102073 313.178575 242.698862 258.567296 265.685746 247.316122 182.855709 202.287067 241.673253 334.543022 509.666601 630.398510 793.420845 592.816361 555.128902 738.870659 957.492089 884.884456 806.133325 825.877892 800.960546 666.190511 445.916657 375.619913 341.991778 247.036900 225.519389 230.921178 339.316672 326.375182 454.773291 333.292204 240.707952 251.304698 198.972962 333.393018 289.894437 192.084700 162.503267 143.082057 136.257276 141.043051
2146.871757 2263.587630 2149.851490 1923.253870 1867.257925 1782.387428 1815.132671 2141.443593 2412.503736 2570.355474 2452.735480 2301.235032 2203.695221 2265.580025 2194.929977 1982.387820 1689.116462 1606.163791 1571.019658 1534.289261 1610.337532 1674.066307 1732.997885 1541.896199 1375.903959 1413.840861 1202.863803 1032.901528 923.777114 795.941240 710.656639 548.814997 522.365380 636.368634 760.853658 1041.682555 1291.273740 1503.482695 1469.464053 1623.325823 1916.351883 2141.488555 2015.588740 1690.079650 1450.350204 1214.636036 1122.663077 1053.984601 950.560616 1194.592001 1474.881194 1646.813170 1871.033843 1767.694591 1389.951102 1140.161230 1134.592240 1044.287453 885.832665 586.348630 573.267360 834.950545 952.250478 986.977441 975.679620 612.786041 861.232495 748.338433 441.847522 491.330503 331.704905 358.711442 94.923575 108.235000 314.837819 402.379202 543.835371 743.777285 1016.902221 1267.325241 1467.016648 1543.432768 1335.441577 1363.665513 1477.001381 1694.537004 1673.080913 1397.998698 1133.151046 970.016481 813.559708 687.547630 571.493272 567.609240 471.433015 367.724749 317.322517 439.400889 448.827410 335.099058 361.266127 245.907467 180.049467 193.278881 211.760337 319.000870 379.735780 686.286403 775.354618 731.081418 609.099119 656.252251 934.276324 1083.599990 1432.361520 1628.247423 1653.758035 1645.461020 1611.396002 1579.469767 1543.605592 1367.986098 1254.332061 1131.722628 1018.807176 830.877538 979.553560 1045.470163 1111.575173 1091.209474 1149.304647 1139.523603 1148.712516 1275.989406 1120.990530 823.969408 942.549260 1278.609454 1442.214115 1466.726317 1510.154878 1502.466476 1431.873961 1307.369860 1355.477164 1476.303576 1452.166295 1462.944324 1506.692172 1575.359764 1725.580009 1841.163358 1876.277401 1828.705010 1783.769270 1723.199729 1545.667651 1293.387132 1095.095972 1287.439424 1568.570980 1507.874630 1227.220161 1498.766862 1410.718903 1635.662607 1630.705701 1685.227111 1605.525589 1499.554785 1313.486920 1456.922321 1595.973513 1612.424060 1548.087139 1472.386238 1583.553613 1596.759152 1616.354183 1608.775783 1697.526405 1723.039439 1715.036026 1628.916356 1647.400529 1586.920555 1569.147406 1473.786841 1357.525618 958.881047 1301.399773 1054.568210 1086.576810 1089.919152 923.927769 1040.079821 986.735020 935.314335 925.457224 763.540437 265.893713 194.603358 488.507235 720.445034 870.440659 1074.435403 1172.228973 1109.834363 1066.145839 1148.848414 1267.320296 1432.004715 1264.683803 914.837779 1063.408590 1204.768496 1364.658335 1482.415856 1607.745511 1515.774354 1409.415922 1177.482623 1066.306093 1104.185804 1038.390700 983.260380 760.560416 690.359706 421.608382 315.109343 264.777582 258.572126 219.787100 253.544576 237.896308 176.214170 184.769780 207.536430 265.211267 391.844312 517.674083 525.993805 388.752775 648.310208 767.279680 772.785334 702.955225 585.169108 700.675177 632.487439 571.926115 401.440939 292.382345 258.307697 234.973266 200.588005 355.469049 380.251071 407.888944 287.044243 261.758886 238.665951 193.546193 228.685435 173.741385 158.243689 149.056206 148.431869 146.376446 134.503424 132.808526
2099.666058 1995.811423 1910.668659 1808.362910 1593.098545 1639.421129 1888.889874 2256.981929 2279.082755 2487.780071 2344.605888 2067.152904 2095.977856 2158.520398 2209.740467 1859.057949 1722.133236 1768.265328 1762.316559 1708.881255 1725.999257 1830.785343 1862.361465 1650.395148 1483.697623 1358.885410 1180.509489 1172.534436 1154.367239 1077.517374 877.237559 666.426365 514.536072 653.350112 787.170582 1011.144844 1340.742436 1656.981726 1652.462416 1858.807976 2075.394391 2057.783228 1780.498283 1705.005151 1543.329245 1359.878801 1168.560340 905.029694 1157.096980 1158.716356 1328.517389 1662.804108 1824.913990 1559.262425 1475.412277 1197.285654 960.783688 803.348367 653.187135 575.616791 611.327820 646.962151 823.682541 961.398784 843.218507 518.886389 645.846973 414.689542 353.876949 434.948047 217.289026 230.098751 95.109236 239.963528 336.826089 432.747130 679.581523 956.397939 1168.255715 1404.307531 1569.571996 1710.463774 1524.431594 1505.758253 1512.126072 1712.504112 1461.907108 1208.596365 1070.472878 915.555890 811.006396 690.370590 473.057527 416.056057 273.101318 219.879288 254.413086 340.983896 180.158817 181.367593 188.505546 177.630076 177.394876 204.663094 229.076587 288.797566 311.300651 449.855089 599.581008 505.778983 735.801376 929.849215 1034.397159 1295.602914 1484.005970 1536.257975 1581.088670 1509.197459 1463.404438 1479.471428 1409.956625 1342.426504 1223.833023 1166.757983 1151.487533 903.564396 830.053364 904.325204 875.242360 923.909825 1076.508596 1077.951020 1097.282280 1186.214646 1165.321978 838.825679 888.370301 1175.730086 1347.062765 1402.319972 1486.181017 1538.007344 1500.937695 1378.107803 1153.140056 1339.845366 1393.473820 1481.021229 1484.209638 1536.732042 1740.062336 1784.614840 1812.115645 1752.052056 1738.355538 1701.755530 1666.569327 1425.289837 1176.336049 1191.320157 1489.525389 1420.210799 1184.863142 1290.675543 1520.832831 1545.794074 1548.248895 1590.674722 1576.493455 1514.020003 1380.555100 1365.249242 1546.700242 1612.342927 1588.488542 1471.038724 1509.395476 1560.808303 1713.058394 1610.721425 1661.781999 1784.319763 1687.979956 1760.645604 1698.794710 1535.507157 1503.640708 1457.928521 1402.609073 1061.750766 935.843557 912.002074 1080.332025 1042.098974 915.130016 944.923159 1116.770319 1009.912559 946.362815 716.679841 193.746761 191.128858 543.206284 704.177952 709.901980 906.129952 1108.461772 1262.725674 1252.874154 1218.024983 1357.724490 1462.241426 1264.198901 1013.424813 1139.983908 1218.512459 1519.564048 1541.792787 1461.147196 1290.879111 1260.468148 1094.018314 1176.633551 1094.407433 804.923081 738.878877 691.978386 517.856277 366.225328 284.668146 265.285044 243.485254 223.887385 212.823910 235.308281 179.566567 178.361110 265.738330 283.417978 384.802166 585.126205 357.424840 369.995086 521.063383 578.939509 498.338381 455.687757 475.963998 498.639221 379.777679 374.669659 299.905359 257.116042 236.837577 221.711065 203.779292 293.664511 336.863700 225.515618 211.832746 218.559068 179.945589 161.077201 158.316867 152.090858 144.002199 143.571382 142.864021 146.939829 137.102479 133.254153
1984.154965 1890.564198 1726.403141 1658.679624 1496.898277 1608.176806 1953.888676 2020.137848 2197.950982 2456.938737 2282.085081 2070.875101 1920.436800 2029.287890 2182.259621 1879.260972 1769.622492 1832.242140 1913.252853 1801.510448 1895.792813 1964.648665 1928.681013 1767.048801 1579.460094 1381.104625 1198.128006 1233.174535 1314.696719 1106.846174 939.128406 637.299099 507.705450 670.975907 925.129512 1240.596418 1537.312757 1746.893237 1812.577763 1943.584227 1901.890032 1976.452123 1604.856320 1306.341142 1160.689109 1248.098086 993.986528 875.145454 910.867827 949.091508 1173.117548 1487.860419 1572.702676 1350.066585 1342.201388 1421.312191 1318.153296 1142.497108 784.296888 620.793910 527.331979 549.805413 698.149057 836.393592 644.247156 454.045739 503.110611 260.259233 351.999849 412.849844 243.690165 126.748712 95.029115 160.331072 364.873880 571.167558 862.605615 1154.468399 1364.734096 1556.487267 1693.222837 1893.158789 1741.738343 1687.741499 1642.095238 1544.597781 1267.412414 1121.760262 1000.542842 831.024875 756.995593 594.835664 418.042337 335.285677 203.673533 184.418565 181.996027 174.832568 172.813984 175.228838 174.169191 175.403087 175.154198 207.153727 359.149391 613.544391 470.500350 337.016881 427.834709 676.800340 816.570124 1020.310842 1162.896369 1269.036817 1316.644419 1346.847887 1375.293342 1317.755955 1302.879862 1413.627296 1395.364695 1254.184453 1144.999752 1274.814177 1253.114288 1144.737720 944.314814 845.187072 651.665241 764.370751 821.771035 802.992744 863.429593 1023.934580 882.036888 889.283019 713.819549 952.582643 1218.425580 1320.951873 1394.573806 1470.844654 1502.749268 1399.633879 1179.547795 1146.070495 1327.577177 1403.774258 1466.788175 1542.849502 1705.198532 1654.409632 1783.440779 1697.854701 1646.274601 1634.788629 1563.639726 1521.674627 1253.751580 1086.525955 1396.501174 1298.168164 1258.702366 1504.494605 1502.879327 1445.004694 1469.210126 1483.188014 1483.047889 1438.365582 1297.226749 1362.079738 1469.009965 1507.634831 1526.319931 1586.496984 1428.271540 1571.979217 1683.005726 1635.322628 1644.172004 1696.740097 1792.447871 1720.350070 1702.518743 1532.947392 1339.306004 1335.644361 1406.641401 1209.347345 973.275021 769.003522 956.192601 971.464415 982.040746 933.705693 980.865298 897.967129 668.108006 394.392212 186.712466 215.359465 706.911141 942.497611 792.427764 877.547997 1020.507832 1221.426250 1347.441960 1401.714238 1359.809444 1298.662368 1211.978302 1078.178409 1158.293691 1331.848183 1606.884208 1487.827953 1281.640276 1171.400461 1188.972155 1208.937441 1135.972735 958.443996 576.191011 494.303330 476.611169 381.403030 331.960548 303.375869 276.571624 253.353501 220.734150 242.390514 191.376770 173.624768 207.700689 409.436044 436.628046 499.305838 482.274673 307.258249 345.116119 287.203595 320.086441 313.325016 343.264235 344.558392 341.920320 260.437624 249.686655 233.498802 291.125243 325.603136 405.202481 281.392348 178.128036 213.320297 230.588606 172.675963 157.291682 147.511219 145.228382 145.006276 141.132929 140.577212 139.370741 141.761899 140.279305 141.862168 136.666299
1921.814875 2064.831173 1899.623505 1631.774610 1485.584986 1584.938122 1822.614185 1953.898294 2188.478422 2403.950746 2381.490558 2315.793576 2170.167276 1892.255929 1940.963936 1870.936077 1861.820036 1901.024301 1927.169505 1898.533606 2031.913071 1870.746531 1695.228811 1739.230756 1515.263479 1325.166733 1156.961781 1362.936259 1339.620107 1034.234433 771.924904 488.642456 605.030742 810.961152 991.184857 1291.921524 1462.812697 1648.997487 1551.961487 1782.385671 1868.162518 1730.210864 1474.164011 1224.104089 1055.993539 1039.291175 896.260976 936.650579 1072.695339 1255.196963 1318.665816 1517.478222 1697.244806 1373.229684 1138.593534 1162.856849 1140.535967 1184.172309 856.574736 631.271407 482.828657 413.661183 536.200677 708.330187 505.080924 329.728994 222.761241 111.993584 149.545341 162.958236 143.608737 122.936074 99.529696 117.160304 283.527151 521.106092 806.531779 991.405280 1130.417439 1201.884838 1434.176376 1706.796091 1968.697939 1901.205819 1685.083644 1355.450132 1195.908943 1044.914162 855.062342 760.573163 655.823066 432.019787 358.220689 193.504670 180.233025 174.337691 175.127192 173.051535 178.411641 173.921964 175.419587 175.202690 180.192857 266.472585 515.722502 884.373461 601.062170 486.884673 433.763441 556.608005 725.762380 880.234994 1036.916174 1118.752070 1179.580721 1232.729280 1260.978249 1241.411890 1249.477375 1284.495051 1356.803160 1326.935784 1161.884245 1340.421351 1377.955288 1332.113771 1208.533562 1166.727366 959.478822 706.604792 596.754433 541.435560 610.162190 592.873662 546.246275 589.913138 621.250827 945.918174 942.515960 989.003995 1078.472408 1395.107497 1466.305887 1452.315303 1245.060895 943.212978 1225.745293 1449.054897 1490.438365 1558.296765 1654.223857 1674.996172 1703.776764 1616.299250 1533.000405 1546.988659 1533.729876 1470.708527 1322.330923 1033.484531 1071.588086 1180.622975 1438.837122 1512.934563 1525.731582 1447.488918 1448.263652 1359.521987 1353.350868 1354.626054 1224.771436 1277.039300 1340.714647 1414.306239 1439.291305 1564.593395 1465.907727 1478.336325 1649.913319 1663.997596 1535.971589 1633.838066 1741.241974 1608.792034 1598.951725 1446.720051 1258.304392 1155.703822 1260.110718 1057.100185 996.950991 887.342895 843.992871 979.717376 968.926602 653.505515 569.685910 624.192916 408.623064 218.174702 193.891280 363.290343 605.743717 950.297508 871.799309 931.669487 1019.982525 1158.530814 1175.655932 1384.207355 1418.862407 1263.652999 1245.449929 1142.183156 1267.115718 1424.410440 1554.468396 1386.113742 1226.895438 1252.508217 1266.220748 1068.480485 824.562094 687.778319 471.826438 414.358576 398.517123 338.615505 317.260695 313.376444 320.949039 328.789634 354.883871 409.927668 346.999929 180.102095 221.695945 309.032887 356.292249 408.887654 343.688875 251.534914 258.807475 243.417237 248.855362 272.849994 300.096394 274.508152 259.099325 211.844019 209.966157 297.394190 317.840998 278.745914 233.869556 212.047410 164.423998 165.748000 160.272854 149.385557 139.850617 138.601173 140.442935 135.494253 135.968998 134.361531 138.943136 137.842772 137.389722 138.387881 136.714576
1889.487234 2089.308839 1892.451860 1618.107755 1484.847082 1629.881593 1814.831551 1974.984295 2180.809986 2316.689639 2150.688066 2238.263091 2302.231222 1909.428376 1855.047126 2053.512079 2117.162071 2052.981676 2086.466547 1977.883009 1804.276699 1845.649260 1704.304460 1544.912011 1391.050696 1200.805363 1066.071531 1099.933948 1074.218333 810.106795 579.680200 508.618428 741.529477 977.378167 1216.875173 1307.612960 1476.384200 1402.218558 1383.935372 1461.469196 1602.785757 1465.718477 1603.320245 1566.843815 1271.844409 986.597891 849.273809 915.153849 1118.563336 1289.150644 1314.017190 1490.544464 1689.567311 1523.419032 1265.309022 1083.659443 974.663277 1042.021688 1035.793180 839.177151 559.059756 381.503784 413.145918 454.422059 398.722078 283.288333 104.021560 79.386942 86.615722 86.787909 90.430990 87.634277 99.338078 119.462488 150.766735 310.592110 461.197205 684.042583 845.461517 1057.827727 1371.894443 1663.144742 1854.435771 1694.902187 1448.307541 1308.384209 1171.945982 1069.719087 805.114248 654.450806 454.685334 351.416716 236.710684 192.697755 178.137121 175.736619 210.997929 197.910482 198.221338 196.925403 194.998585 252.225922 333.243441 447.805019 903.885728 1037.211904 853.042137 671.770083 615.331229 492.476063 625.367033 848.653894 991.757369 1049.797457 1100.542724 1134.192265 1173.514728 1217.829182 1260.308808 1302.829169 1418.619595 1350.076557 1217.641239 1322.572894 1401.313845 1426.778276 1387.902271 1335.372815 1155.845320 962.798192 907.108394 634.068681 600.696890 578.473350 574.866254 464.126870 539.969080 679.561302 754.997415 761.927488 973.549941 1117.158569 1325.031891 1431.000337 1181.048163 799.542555 1170.239941 1437.958067 1511.921972 1567.213026 1596.524615 1701.936023 1637.951947 1583.824726 1489.030550 1435.536385 1510.456352 1494.865254 1407.981996 1033.287607 1146.368489 1304.834025 1429.131592 1479.875256 1425.887050 1353.360254 1321.773365 1262.839796 1266.059495 1253.702778 1209.204069 1216.381962 1219.313215 1253.236414 1311.406864 1402.696436 1323.919315 1395.307349 1564.055454 1629.512592 1474.740207 1440.949182 1574.027823 1542.281943 1304.755902 1225.857341 1161.114913 1021.611151 1056.098504 1012.250110 904.081758 935.354722 734.801839 1026.187864 937.470138 439.621996 266.063453 215.214712 188.945390 296.780385 468.586586 522.894747 990.690858 1089.725724 984.754374 933.164773 992.958844 1067.586757 1184.696777 1418.515830 1304.054934 1266.916853 1375.376249 1207.057728 1287.466804 1531.601011 1442.377599 1256.666898 1278.659488 1290.337987 1266.200236 1012.546607 749.424833 562.194309 630.967977 610.162961 410.593250 465.425827 538.008788 512.054944 457.639900 447.810754 515.292191 601.394525 371.732583 176.968733 166.476437 201.169687 221.478586 222.752948 218.068343 227.711470 235.132239 228.185786 225.514587 278.466743 243.119470 214.014335 202.133207 189.697258 216.360476 300.254844 243.270625 210.498277 178.585846 162.591997 156.762503 151.757775 142.803903 136.683873 132.102447 135.206370 129.853954 128.931562 129.977826 131.387677 133.110493 134.233491 133.560758 136.508591 133.687491
1865.867761 2031.055068 1753.459128 1615.668316 1502.981221 1622.103409 1923.029987 2024.953034 1987.740483 2093.455255 1984.449642 2021.128384 2142.901049 2019.118134 1728.507407 1721.401085 1942.392745 1970.184495 1853.816887 1962.505216 1741.983525 1549.719501 1596.296160 1393.811523 1266.432048 1249.687836 966.304994 794.520177 795.155868 662.839679 480.441350 584.517403 843.631766 1114.746017 1473.777293 1538.868473 1573.476938 1462.798685 1211.344686 1255.279203 1528.952481 1203.074877 1394.789771 1399.412398 1351.561633 1026.824756 799.535401 860.877147 1029.229997 1174.995910 1357.134457 1514.855491 1746.772829 1454.270039 1254.031561 1176.513367 1064.687925 842.693023 832.902083 859.162509 671.007768 583.635794 298.466462 299.877184 280.155011 173.438264 81.957497 76.492788 79.217980 82.852065 88.730963 85.406033 98.466577 123.892780 167.989877 276.281433 465.540997 746.399212 980.739241 1235.513230 1437.664008 1667.148424 1646.199638 1439.885419 1297.503147 1240.719353 1150.232545 1024.505475 798.663021 600.363776 429.336743 309.506670 212.427867 178.705482 173.024316 209.478591 331.827202 273.871926 255.140671 296.610256 361.306132 412.050391 506.230332 772.530466 968.645629 1138.286691 1131.580268 785.859421 782.533789 786.687478 646.598380 693.478664 802.682879 926.810253 1045.545686 1091.412188 1136.228640 1200.571388 1274.208982 1346.555435 1389.278019 1288.983931 1332.256673 1358.486961 1467.543305 1440.113434 1418.430434 1432.998236 1319.434683 1155.563258 1038.390007 815.113713 848.668075 954.877051 827.773340 724.398893 470.811761 441.057000 488.640488 647.393766 850.555654 883.723325 965.080872 1100.725994 1003.433844 702.104711 1072.216689 1427.951225 1507.871768 1596.476520 1611.077109 1662.667238 1621.240562 1520.859513 1472.135680 1463.656217 1389.275293 1350.343769 1279.380616 1129.663891 1052.429351 1222.019036 1424.374371 1412.616388 1366.513383 1230.610372 1163.528174 1219.932521 1139.865111 1180.885183 1194.214138 1169.419041 1141.984040 1215.125404 1193.354216 1247.669904 1158.372533 1284.632851 1373.692093 1396.317075 1374.431413 1213.428980 1288.713982 1334.482810 1125.632729 999.733110 1081.942566 1054.176774 959.270218 1089.175590 1016.516292 908.754184 534.435526 982.249592 801.438894 413.882944 205.086273 539.340432 449.623811 867.326797 681.965811 1069.175821 1083.620787 1147.831743 1004.327429 1072.229994 1239.676483 1285.996599 1239.776886 1420.402666 1283.202993 1391.923178 1388.338286 1263.892114 1355.716771 1486.738004 1298.996758 1304.384432 1327.372520 1390.891341 1346.435201 1262.406430 982.872865 737.228872 851.478723 612.375259 469.156752 690.437272 741.226594 725.808092 660.569481 656.700553 686.147880 612.817906 379.011042 171.841874 168.978390 163.126738 165.814705 190.587264 205.536453 205.699457 205.522992 210.134680 207.719527 221.774630 219.552446 201.881881 190.148936 178.538394 213.913188 285.766928 239.656577 191.564009 149.470838 145.616375 144.969854 143.863938 139.915948 132.366122 130.690701 128.377787 124.725931 123.311419 127.421841 126.660798 127.388983 130.289186 131.078410 131.090477 130.622702
1793.441861 1814.486779 1662.253680 1662.897555 1477.029120 1607.415984 1880.399710 2014.117801 1855.019132 1829.880829 1846.539048 1937.748115 2159.288480 2104.436698 1839.095142 1563.072579 1741.875344 2034.760337 1877.390924 1700.169268 1498.173466 1322.964419 1301.733597 1137.860771 1079.498797 1234.615782 986.472819 739.253764 570.658721 481.903354 518.811929 727.434347 995.253770 1351.670592 1549.259199 1360.759599 1306.801479 1295.187555 1133.498598 1176.835748 1376.525693 1044.776851 1127.770039 1187.077553 1218.494262 926.611805 780.463151 961.652308 1146.762056 1373.709534 1621.922151 1784.242505 1727.611693 1604.900492 1403.910257 1432.923856 1212.108670 913.457999 721.899450 649.120855 683.905988 822.243894 315.020613 144.197698 138.764237 105.254752 76.750447 77.411631 79.623679 80.396562 80.438029 84.351574 91.153387 115.293919 189.545138 350.710362 566.276905 758.699971 1017.706346 1234.341138 1369.630209 1425.405982 1434.914573 1268.899846 1313.290909 1249.627473 1218.305529 978.682615 659.424176 504.259812 390.162608 251.431481 179.251241 172.018629 174.048873 206.703569 355.957114 330.696232 287.211897 393.160342 510.490598 585.724378 705.049116 872.991425 1075.671123 1218.920984 1334.738084 1106.839976 1035.416356 918.385486 843.998859 899.997506 961.365431 1116.123732 1163.240803 1182.000901 1189.945718 1257.449393 1296.715702 1452.679687 1405.261331 1295.191461 1470.570686 1459.253960 1500.713977 1517.986829 1471.070338 1424.942950 1390.924513 1341.928670 1037.306841 1030.757585 1088.586783 1175.010434 1100.854652 1009.044424 654.205329 540.702330 506.139565 419.972930 610.780997 714.273070 717.809881 834.840232 821.345545 732.317403 1127.388841 1357.743567 1506.084851 1576.407423 1608.161037 1642.210174 1622.518148 1516.127018 1424.327927 1412.642543 1414.363925 1469.013402 1290.738085 1204.651355 1008.831014 1125.528801 1354.862147 1400.172684 1276.861498 1112.055377 1079.412345 1199.919459 1119.382737 1099.097486 1167.376115 1129.185167 1123.576328 1143.838500 1145.424166 1183.231324 1016.841272 1173.893019 1244.729673 1159.692144 1082.803618 1015.202304 1007.574144 1082.935252 988.075539 896.311224 1037.412376 994.898677 939.416909 1053.609456 1051.795086 1001.816241 378.759682 500.250863 573.919848 236.507667 295.615098 519.519076 806.187542 802.899396 1183.644020 1241.862776 1280.253071 1218.198228 1058.064111 1035.537910 1291.960050 1359.345488 1418.250752 1397.346637 1346.606295 1419.696202 1430.965981 1397.915232 1473.602878 1399.826194 1341.590220 1464.256997 1361.886586 1412.975721 1434.809914 1263.387413 1129.449916 1047.315029 820.908181 677.860137 641.798899 841.754657 837.310519 817.721000 767.064872 706.278192 578.150886 516.322458 516.192880 257.057549 168.612590 163.201393 165.238549 164.026320 163.381194 178.335941 192.805467 186.499068 197.472762 199.373854 211.625749 178.642507 180.543483 192.682179 218.340387 193.961192 149.697195 143.474854 137.909847 141.280549 137.613610 138.061496 136.479063 133.285714 123.554263 124.488996 121.645014 119.684643 122.479920 123.877235 125.091582 124.401115 126.357311 125.486652 127.114360
