ncols         318
nrows         28
xllcorner     658979.565485
yllcorner     5124420.17034
cellsize      20.004541
NODATA_value  -9999.0
305.136993 305.838989 312.221008 319.071991 324.253998 331.545013 336.277008 338.608002 340.820007 343.872009 347.613007 348.214996 353.156006 354.877991 360.950012 363.660004 366.471008 370.360992 380.040985 388.971985 392.851990 395.742004 401.263000 410.653015 414.783997 421.114014 416.134003 424.535004 426.575012 427.575989 427.885986 428.506012 429.427002 431.006989 432.717010 434.407989 436.067993 438.019012 444.368988 444.329010 444.600006 447.079987 448.279999 448.591003 447.580994 445.932007 442.011993 435.282013 430.213013 419.023010 410.873993 402.384003 394.653992 380.274994 373.445007 364.195007 357.645996 356.526001 357.296997 353.927002 347.346985 339.407989 344.328003 359.338013 361.709015 364.579010 371.019989 378.480011 381.760010 383.311005 383.781006 387.992004 391.951996 400.391998 408.903015 419.653015 430.803009 441.044006 445.074005 450.345001 454.234985 456.154999 457.415985 463.455994 467.756989 475.407013 483.816986 490.988007 495.458008 499.757996 502.808990 504.838989 507.779999 510.950012 518.190002 525.341003 532.870972 536.671997 540.262024 542.882019 543.822998 540.403015 552.203003 560.903992 567.843994 573.025024 577.465027 581.784973 590.286011 603.125977 616.226990 626.906982 634.177002 641.237976 649.607971 656.117981 666.879028 677.809021 681.590027 682.640015 685.489990 689.750977 694.091003 702.351990 709.591980 718.942017 726.413025 736.203003 745.664001 759.504028 772.693970 784.854980 799.484985 813.265015 825.255981 831.205994 836.367004 847.817017 857.757019 864.778015 860.088013 863.109009 872.568970 876.398987 882.189026 882.768982 886.908997 892.619019 902.778992 918.768005 928.927979 938.348022 945.518005 943.638000 937.898010 943.497986 954.968018 964.336975 958.536987 961.567017 965.197021 974.656982 966.007019 943.166992 928.276001 918.416016 944.866028 972.705994 996.306030 998.385986 1014.585999 1026.725952 1037.944946 1052.244995 1068.354980 1083.814941 1087.555054 1096.635010 1107.665039 1131.905029 1152.974976 1169.953979 1174.543945 1172.014038 1182.484009 1195.823975 1211.874023 1229.114014 1253.014038 1270.812988 1281.912964 1288.162964 1296.142944 1284.412964 1274.743042 1278.282959 1288.373047 1283.832031 1281.891968 1274.082031 1272.501953 1269.232056 1265.291992 1261.612061 1271.802002 1286.192017 1301.380981 1314.020996 1319.350952 1315.081055 1324.401001 1319.980957 1307.151001 1296.340942 1308.970947 1313.050049 1317.239990 1325.219971 1333.719971 1351.349976 1366.630005 1381.949951 1393.250000 1407.849976 1420.208984 1433.788940 1448.609009 1458.359009 1469.979004 1483.619019 1498.729004 1515.369019 1534.139038 1554.088013 1587.177979 1613.807983 1630.738037 1640.177979 1624.647949 1609.147949 1606.458008 1622.338013 1620.348022 1629.697021 1658.886963 1699.207031 1704.437012 1692.847046 1655.337036 1623.827026 1640.006958 1629.207031 1676.176025 1689.135986 1707.885986 1718.176025 1724.985962 1739.786011 1769.566040 1788.546021 1801.666016 1811.176025 1821.615967 1829.685059 1832.685059 -9999.0 -9999.0 -9999.0 -9999.0 -9999.0 -9999.0 -9999.0 -9999.0 -9999.0 -9999.0 -9999.0 -9999.0 -9999.0 -9999.0 -9999.0 -9999.0 -9999.0 -9999.0 -9999.0 -9999.0 -9999.0 -9999.0 -9999.0 -9999.0 -9999.0 -9999.0 -9999.0 -9999.0 -9999.0 -9999.0 -9999.0 -9999.0 -9999.0 -9999.0 -9999.0 -9999.0 -9999.0 -9999.0 -9999.0 -9999.0 -9999.0 -9999.0 -9999.0 -9999.0 -9999.0 -9999.0 -9999.0 -9999.0 -9999.0 -9999.0 -9999.0 -9999.0 -9999.0
305.816986 305.229004 313.591003 319.582001 325.873993 331.035004 336.916992 341.028015 343.920013 348.011993 352.203003 354.505005 356.496002 359.298004 366.588989 371.279999 378.260986 385.101013 392.580994 405.032013 410.372009 412.041992 415.583008 418.872986 420.764008 422.174011 423.803986 425.984985 427.274994 428.385986 429.026001 429.885986 431.196991 432.457001 433.647003 435.148010 436.708008 438.489014 444.229004 444.359009 445.820007 447.459991 448.160004 447.181000 444.980988 441.261993 437.312012 432.582001 422.472992 409.153015 400.713989 391.973999 386.074005 376.885010 361.635010 357.815002 355.385986 355.235992 350.937012 338.187012 340.747009 342.608002 354.638000 365.908997 369.438995 371.079010 374.339996 381.019989 384.790009 387.830994 389.300995 394.071991 397.721985 404.951996 411.763000 423.903015 437.834015 443.123993 447.553986 453.434998 456.204987 459.605011 462.955994 465.325989 471.147003 478.076996 486.326996 493.197998 498.088013 502.549011 506.158997 509.118988 512.000000 515.229980 522.250000 530.330994 538.370972 541.471985 544.112000 546.901978 547.713013 551.283020 556.184021 564.773987 571.473999 576.955017 581.875000 586.184998 593.596008 605.955994 620.356995 631.976990 639.586975 646.487976 654.307983 661.499023 673.068970 683.318970 687.950012 687.059998 688.510986 696.041016 702.101013 709.591980 720.502014 729.041992 736.913025 745.583008 759.783997 772.614014 785.903992 797.585022 809.664978 821.385986 833.455994 841.815979 845.807007 856.267029 865.458008 869.478027 869.047974 870.718994 877.489014 882.338989 887.158997 888.198975 891.669006 898.158997 911.778992 928.138977 939.007996 950.057983 957.817993 957.648010 951.487976 950.538025 961.307983 971.038025 977.416992 974.206970 979.137024 985.817017 988.307007 961.127014 952.346985 936.807007 935.216980 956.926025 974.536011 990.335999 1003.125977 1017.315979 1033.296021 1048.245972 1059.365967 1065.665039 1073.525024 1085.665039 1098.305054 1109.214966 1124.114990 1136.915039 1149.464966 1162.915039 1178.274048 1197.484009 1216.284058 1237.843994 1258.043945 1277.443970 1290.063965 1301.553955 1306.012939 1294.753052 1291.703003 1294.753052 1302.363037 1302.203003 1300.282959 1289.483032 1286.642944 1284.072021 1278.212036 1272.161987 1282.371948 1295.671997 1306.862061 1320.062012 1330.202026 1332.572021 1341.192017 1331.801025 1320.740967 1311.461060 1317.701050 1327.860962 1333.480957 1350.901001 1348.941040 1357.390991 1369.150024 1372.349976 1395.540039 1403.219971 1414.739990 1427.189941 1437.900024 1450.699951 1467.430054 1483.390015 1498.098999 1513.338989 1535.659058 1568.678955 1583.328979 1624.098999 1642.698975 1651.548950 1650.979004 1624.788940 1622.608032 1631.287964 1643.917969 1645.797974 1675.598022 1704.417969 1724.478027 1700.267944 1685.297974 1645.917969 1657.737061 1641.386963 1672.386963 1695.286987 1715.687012 1729.927002 1741.227051 1757.327026 1774.136963 1792.307007 1806.965942 1816.686035 1826.336060 -9999.0 -9999.0 -9999.0 -9999.0 -9999.0 -9999.0 -9999.0 -9999.0 -9999.0 -9999.0 -9999.0 -9999.0 -9999.0 -9999.0 -9999.0 -9999.0 -9999.0 -9999.0 -9999.0 -9999.0 -9999.0 -9999.0 -9999.0 -9999.0 -9999.0 -9999.0 -9999.0 -9999.0 -9999.0 -9999.0 -9999.0 -9999.0 -9999.0 -9999.0 -9999.0 -9999.0 -9999.0 -9999.0 -9999.0 -9999.0 -9999.0 -9999.0 -9999.0 -9999.0 -9999.0 -9999.0 -9999.0 -9999.0 -9999.0 -9999.0 -9999.0 -9999.0 -9999.0 -9999.0 -9999.0
305.687012 306.579010 315.191010 321.902008 328.264008 332.135010 337.747009 343.497986 348.279999 352.802002 358.062988 360.114990 361.406006 363.477997 366.889008 371.989990 379.040985 391.221008 399.931000 407.171997 411.231995 414.532013 415.993011 418.342987 420.373993 422.593994 425.463989 426.984985 427.575012 428.376007 429.395996 430.415985 432.096985 433.446991 434.756989 436.217987 437.388000 439.158997 444.408997 444.338989 446.049988 447.429993 447.709991 444.851013 442.181000 437.362000 433.881989 425.541992 416.032989 402.053009 394.584015 384.074005 376.114014 365.584991 358.075012 356.575012 354.165985 346.716003 340.226990 339.217010 341.457001 350.287994 346.537994 363.428986 374.588989 376.398987 380.420013 383.920013 387.679993 390.531006 396.240997 404.011993 408.821991 410.851990 417.092987 428.382996 440.424011 444.584015 450.334015 454.785004 459.434998 462.306000 465.915985 469.205994 474.886993 481.717010 490.907013 497.197998 502.247986 505.718994 509.289001 512.398987 515.840027 520.179993 526.361023 536.140991 542.661011 546.291992 548.971985 550.552002 552.692993 556.242981 553.544006 567.383972 573.554016 578.825012 583.724976 588.796021 596.945984 608.335999 621.346985 634.007019 642.028015 649.697998 657.927979 666.888977 680.638977 690.818970 693.539978 692.609985 694.401001 702.741028 709.390991 722.351990 729.742004 737.913025 746.612976 759.663025 771.424011 785.374023 796.455017 808.054993 819.395020 830.276001 841.145996 851.265991 855.356995 870.146973 871.958008 876.247986 878.588013 880.148987 886.979004 890.890015 893.448975 895.398987 897.979004 905.208984 918.379028 935.158997 948.359009 955.828979 962.278015 970.288025 964.187988 958.478027 969.588013 980.687988 989.788025 989.888000 992.507019 998.346985 1004.487000 982.146973 977.096985 954.757019 939.456970 954.367004 963.237000 981.856018 994.786011 1014.585999 1029.906006 1035.375977 1040.605957 1052.965942 1064.336060 1079.135986 1091.685059 1105.244995 1117.704956 1131.185059 1146.074951 1161.935059 1177.625000 1202.114990 1228.604980 1244.823975 1261.703979 1276.343994 1292.343994 1312.614014 1316.654053 1313.644043 1310.043945 1310.364014 1320.503052 1329.152954 1319.022949 1304.243042 1301.333008 1301.963013 1292.022949 1284.883057 1293.103027 1308.593018 1315.932007 1327.362061 1338.921997 1346.001953 1353.491943 1345.171997 1342.712036 1328.822021 1322.462036 1336.602051 1350.100952 1356.510986 1366.151001 1372.961060 1383.720947 1390.461060 1393.411011 1399.821045 1417.961060 1429.390991 1439.920044 1448.229980 1460.489990 1482.810059 1498.719971 1519.630005 1536.069946 1555.239990 1567.290039 1596.760010 1640.468994 1657.448975 1663.979004 1647.928955 1639.869019 1652.009033 1674.038940 1680.038940 1696.379028 1723.979004 1735.718994 1734.108032 1708.328003 1669.697998 1666.137939 1666.988037 1692.978027 1692.647949 1710.238037 1728.718018 1746.378052 1760.328003 1775.847046 1791.166992 1804.737061 1812.786987 1820.866943 -9999.0 -9999.0 -9999.0 -9999.0 -9999.0 -9999.0 -9999.0 -9999.0 -9999.0 -9999.0 -9999.0 -9999.0 -9999.0 -9999.0 -9999.0 -9999.0 -9999.0 -9999.0 -9999.0 -9999.0 -9999.0 -9999.0 -9999.0 -9999.0 -9999.0 -9999.0 -9999.0 -9999.0 -9999.0 -9999.0 -9999.0 -9999.0 -9999.0 -9999.0 -9999.0 -9999.0 -9999.0 -9999.0 -9999.0 -9999.0 -9999.0 -9999.0 -9999.0 -9999.0 -9999.0 -9999.0 -9999.0 -9999.0 -9999.0 -9999.0 -9999.0 -9999.0 -9999.0 -9999.0 -9999.0
306.326996 310.898987 315.950012 324.002014 329.463989 333.765015 339.987000 346.678009 352.309998 354.800995 357.453003 360.084991 361.246002 363.037994 366.778992 372.190002 380.200989 392.721008 399.920990 406.622009 411.362000 412.522003 413.562988 416.752991 419.403992 422.463989 425.924011 426.325012 426.535004 427.686005 428.746002 430.145996 432.127014 433.756989 435.326996 436.618011 437.817993 439.859009 444.329010 444.389008 446.079987 447.230011 444.681000 441.390991 438.080994 433.981995 422.342011 412.541992 404.602997 399.673004 389.033997 375.944000 364.843994 357.695007 357.795013 355.936005 345.746002 340.795990 335.307007 346.967010 354.467010 358.597992 362.078003 356.579010 375.039001 379.998993 382.739990 387.089996 390.140991 392.980988 400.700989 409.141998 416.032013 418.571991 422.523010 432.102997 441.414001 445.713989 451.414001 455.345001 460.345001 465.726013 470.105988 472.716003 477.867004 486.207001 494.197998 499.368011 504.618011 508.519012 511.628998 514.758972 519.619995 523.570007 528.861023 539.440979 546.991028 549.781982 553.031982 555.763000 556.822998 560.263000 564.023987 565.164001 570.744995 578.924988 584.775024 590.406006 598.375977 610.245972 622.947021 635.017029 644.247986 651.888000 660.968018 671.158997 686.648987 697.659973 699.030029 698.169983 703.431030 712.281006 721.822021 733.442017 741.252014 746.763000 756.793030 769.232971 782.763977 795.174011 806.664978 816.934998 828.965027 841.015991 851.205994 862.077026 869.526978 879.146973 885.447998 883.427979 887.408997 891.249023 896.939026 900.190002 903.849976 905.799011 911.119019 917.439026 928.908997 940.859009 953.739014 963.609009 973.499023 983.068970 977.487976 970.078003 982.708008 991.658020 1001.617981 1008.607971 1008.338013 1011.197998 1015.627991 1003.916992 992.127014 971.286987 961.046997 958.026978 965.077026 963.296997 973.817017 986.856995 1002.176025 1021.526001 1034.235962 1049.066040 1062.906006 1074.946045 1088.615967 1103.286011 1117.015991 1131.694946 1147.795044 1163.444946 1179.915039 1194.375000 1211.234985 1228.125000 1257.805054 1278.635010 1295.915039 1316.463989 1328.994019 1330.173950 1326.303955 1330.884033 1345.034058 1355.364014 1338.343994 1319.673950 1316.803955 1312.623047 1305.042969 1299.182983 1303.942993 1316.493042 1327.123047 1336.853027 1347.453003 1358.863037 1366.412964 1361.151978 1360.001953 1351.562012 1341.621948 1342.041992 1355.182007 1367.322021 1374.182007 1385.812012 1389.781982 1401.391968 1411.941040 1408.100952 1430.671021 1449.061035 1456.250977 1455.201050 1464.791016 1474.640991 1494.840942 1510.010986 1531.380005 1546.979980 1562.140015 1586.500000 1619.560059 1649.010010 1670.770020 1665.060059 1681.369995 1685.119995 1689.890015 1697.670044 1719.548950 1736.659058 1746.999023 1741.688965 1723.718994 1696.279053 1684.359009 1701.038940 1708.359009 1709.588989 1716.759033 1733.409058 1755.078003 1768.758057 1785.588013 1796.238037 1802.758057 1811.468018 1820.368042 -9999.0 -9999.0 -9999.0 -9999.0 -9999.0 -9999.0 -9999.0 -9999.0 -9999.0 -9999.0 -9999.0 -9999.0 -9999.0 -9999.0 -9999.0 -9999.0 -9999.0 -9999.0 -9999.0 -9999.0 -9999.0 -9999.0 -9999.0 -9999.0 -9999.0 -9999.0 -9999.0 -9999.0 -9999.0 -9999.0 -9999.0 -9999.0 -9999.0 -9999.0 -9999.0 -9999.0 -9999.0 -9999.0 -9999.0 -9999.0 -9999.0 -9999.0 -9999.0 -9999.0 -9999.0 -9999.0 -9999.0 -9999.0 -9999.0 -9999.0 -9999.0 -9999.0 -9999.0 -9999.0 -9999.0
307.476990 314.299011 316.630005 325.071991 330.864014 336.475006 341.617004 346.398010 349.369995 350.520996 351.583008 356.144989 359.556000 361.888000 366.039001 372.450012 380.121002 390.591003 396.800995 403.201996 407.432007 409.962006 411.303009 414.502991 416.984009 420.283997 422.993988 424.125000 424.815002 426.415985 427.915985 429.446014 431.437012 433.136993 434.837006 436.528015 437.817993 440.058990 442.269012 444.509003 445.989990 446.459991 443.221008 434.001007 432.531006 421.592010 409.721985 401.701996 397.993011 394.333008 385.903992 371.963989 359.903992 355.665009 354.984985 349.776001 341.946014 334.126007 344.416992 349.147003 359.256989 370.328003 372.687988 361.819000 366.308990 380.479004 385.630005 390.170013 393.420990 397.330994 404.651001 413.231995 418.041992 420.972992 427.132996 436.062988 442.764008 448.604004 453.544006 457.695007 463.885010 469.716003 473.436005 476.485992 481.296997 490.127014 496.898010 503.308014 506.148010 511.709015 514.239014 517.200012 520.830017 525.659973 532.031006 540.450989 548.260986 551.742004 555.742004 560.523010 563.182983 563.442993 567.843994 572.174011 576.315002 582.364990 587.215027 593.286011 599.335999 609.947021 622.856995 634.997009 644.627991 653.307983 662.968994 674.049011 688.749023 701.229980 703.440002 705.119995 713.020996 723.390991 735.122009 745.031982 751.591980 754.992981 766.093018 780.723999 792.684021 804.684021 814.585022 825.684998 836.786011 849.366028 861.825989 872.456970 879.267029 885.507996 891.278015 894.677979 892.218994 900.098999 904.729980 909.820007 914.299988 915.469971 920.030029 927.559021 937.068970 948.129028 961.059021 972.328979 985.278992 992.789001 989.338989 982.348999 993.237976 1002.768005 1011.708008 1020.718018 1027.287964 1028.057983 1030.297974 1027.947998 1010.348022 993.487000 979.937012 978.976990 979.697021 982.387024 973.416992 987.197021 1009.286987 1022.807007 1036.697021 1047.926025 1061.776001 1081.715942 1099.595947 1108.875977 1121.076050 1135.465942 1151.696045 1171.865967 1187.916016 1202.734985 1227.344971 1244.175049 1262.425049 1269.795044 1296.744995 1319.135010 1338.094971 1341.954956 1343.895020 1353.173950 1362.323975 1369.024048 1357.744019 1336.043945 1335.183960 1327.663940 1318.443970 1313.274048 1310.134033 1321.524048 1335.983032 1349.113037 1359.572998 1369.312988 1377.532959 1380.322998 1380.833008 1369.152954 1364.692993 1356.292969 1361.272949 1372.921997 1385.692017 1392.352051 1403.192017 1413.562012 1427.161987 1429.241943 1433.281982 1449.452026 1463.911987 1476.702026 1479.691040 1487.220947 1509.291016 1517.850952 1534.760986 1546.750977 1559.270996 1573.071045 1590.770996 1612.061035 1640.620972 1671.151001 1682.300049 1696.729980 1711.959961 1729.800049 1732.030029 1746.020020 1751.579956 1747.359985 1729.510010 1710.630005 1698.310059 1712.439941 1721.140015 1729.458984 1732.448975 1747.619019 1755.639038 1770.649048 1787.899048 1802.379028 1806.098999 1813.249023 1819.649048 -9999.0 -9999.0 -9999.0 -9999.0 -9999.0 -9999.0 -9999.0 -9999.0 -9999.0 -9999.0 -9999.0 -9999.0 -9999.0 -9999.0 -9999.0 -9999.0 -9999.0 -9999.0 -9999.0 -9999.0 -9999.0 -9999.0 -9999.0 -9999.0 -9999.0 -9999.0 -9999.0 -9999.0 -9999.0 -9999.0 -9999.0 -9999.0 -9999.0 -9999.0 -9999.0 -9999.0 -9999.0 -9999.0 -9999.0 -9999.0 -9999.0 -9999.0 -9999.0 -9999.0 -9999.0 -9999.0 -9999.0 -9999.0 -9999.0 -9999.0 -9999.0 -9999.0 -9999.0 -9999.0 -9999.0
309.416992 310.239014 318.799988 325.712006 329.944000 336.304993 340.946991 342.108002 343.500000 345.080994 346.812988 351.125000 356.506012 360.578003 365.528992 372.589996 380.190002 388.091003 393.270996 398.541992 404.122009 407.221985 408.752991 411.252991 413.753998 415.944000 419.553986 421.334991 422.714996 424.976013 427.085999 428.716003 430.497009 432.356995 434.527008 436.477997 437.947998 439.968994 441.919006 443.718994 445.070007 445.619995 435.401001 425.441010 415.260986 406.022003 400.752014 395.562012 389.213013 382.532989 377.014008 372.084015 359.544006 352.714996 344.015015 345.425995 337.246002 338.115997 343.266998 352.226990 363.037994 370.447998 374.697998 379.069000 379.079010 381.588989 388.410004 394.429993 397.281006 401.730988 409.681000 416.221985 420.432007 426.042999 431.273010 440.562988 444.253998 450.563995 455.584991 460.065002 464.394989 471.776001 476.476013 479.476013 484.786987 492.027008 498.838013 505.377991 508.548004 513.129028 516.818970 520.440002 523.559998 528.460022 533.031006 540.861023 548.312012 553.642029 557.492004 562.632996 567.543030 571.734009 571.674011 574.814026 579.994995 585.385010 590.565002 596.276001 603.625977 611.406982 622.476990 633.666992 644.848022 654.478027 664.848999 675.318970 689.229004 701.989990 707.599976 713.950989 723.580994 735.770996 748.101990 758.452026 763.382996 769.132996 775.612976 790.223999 801.684021 813.265015 823.445007 833.684998 844.726013 857.145996 869.885986 880.916992 886.437012 893.578003 899.007996 902.958008 900.979004 908.148987 912.989990 919.369995 922.070007 924.190002 928.900024 937.010010 946.658997 958.908997 970.549011 982.809021 997.218994 1003.559021 1002.049011 994.458984 1002.869019 1013.078979 1021.697998 1030.437988 1039.848022 1046.118042 1047.767944 1046.098022 1035.368042 1012.127991 1000.708008 1000.127991 996.267029 996.817017 995.416992 985.887024 996.567017 1018.007019 1037.796997 1053.807007 1069.266968 1086.967041 1103.125977 1114.015991 1122.515991 1136.826050 1154.446045 1178.696045 1195.276001 1207.826050 1219.115967 1231.895996 1234.706055 1249.224976 1270.954956 1299.535034 1327.305054 1350.545044 1359.905029 1369.255005 1377.935059 1381.305054 1371.354980 1353.395020 1352.083984 1342.384033 1331.904053 1325.514038 1324.154053 1328.354004 1339.604004 1354.894043 1367.543945 1380.784058 1388.984009 1394.024048 1392.883057 1389.113037 1380.593018 1369.363037 1368.753052 1393.662964 1395.922974 1403.812988 1411.942993 1424.562988 1437.072998 1443.713013 1452.411987 1451.271973 1466.771973 1478.812012 1492.232056 1499.452026 1519.072021 1534.442017 1543.112061 1549.671997 1563.222046 1579.521973 1605.840942 1616.640991 1633.921021 1653.630981 1673.311035 1701.720947 1718.490967 1734.961060 1748.630981 1757.360962 1759.301025 1749.441040 1733.181030 1717.520020 1718.369995 1723.310059 1739.280029 1748.630005 1769.270020 1773.849976 1772.020020 1776.329956 1791.719971 1805.880005 1811.699951 1816.500000 1817.229980 -9999.0 -9999.0 -9999.0 -9999.0 -9999.0 -9999.0 -9999.0 -9999.0 -9999.0 -9999.0 -9999.0 -9999.0 -9999.0 -9999.0 -9999.0 -9999.0 -9999.0 -9999.0 -9999.0 -9999.0 -9999.0 -9999.0 -9999.0 -9999.0 -9999.0 -9999.0 -9999.0 -9999.0 -9999.0 -9999.0 -9999.0 -9999.0 -9999.0 -9999.0 -9999.0 -9999.0 -9999.0 -9999.0 -9999.0 -9999.0 -9999.0 -9999.0 -9999.0 -9999.0 -9999.0 -9999.0 -9999.0 -9999.0 -9999.0 -9999.0 -9999.0 -9999.0 -9999.0 -9999.0 -9999.0
309.516998 311.808990 318.130005 324.902008 329.553009 334.045013 335.606995 337.278015 338.339996 340.501007 342.653015 346.954987 353.885986 359.608002 365.449005 373.140015 379.989990 386.811005 390.821014 396.342011 401.921997 404.011993 405.993011 407.953003 409.864014 412.644012 415.243988 418.125000 420.154999 422.466003 426.385986 428.006012 429.916992 432.196991 434.316986 436.627991 438.208008 440.218994 441.688995 443.549011 443.290009 437.029999 427.920990 413.631012 404.531006 397.541992 393.161987 388.352997 382.372986 374.532989 369.713989 357.553986 349.614014 335.125000 331.385010 335.335999 334.795990 343.446014 349.397003 355.737000 363.828003 371.157990 377.977997 382.549011 384.498993 381.070007 390.890015 398.010010 402.050995 407.601013 414.260986 419.471985 423.881989 429.483002 433.983002 441.792999 445.954010 452.044006 455.204987 461.184998 468.445007 474.026001 478.895996 482.316986 488.256989 495.286987 501.108002 507.368011 509.598999 514.809021 519.388977 522.409973 525.780029 530.289978 534.661011 542.931030 550.452026 554.442017 559.291992 564.072998 569.473022 574.164001 578.684021 581.763977 587.804993 590.304993 594.726013 601.486023 607.346008 614.427002 626.247009 637.047974 647.018005 658.158020 667.669006 676.999023 689.940002 702.960022 712.739990 722.210999 734.620972 749.270996 761.671997 770.192017 775.432983 782.482971 791.172974 798.533997 809.354004 820.695007 830.455017 843.005005 852.906006 863.726013 873.677002 885.646973 895.596985 900.927979 908.197998 908.468994 909.008972 917.068970 921.059998 927.960022 930.030029 931.630005 936.669983 945.039978 954.530029 968.090027 979.888977 991.138977 1004.729004 1013.799011 1014.898987 1007.708984 1013.338989 1022.859009 1032.509033 1041.438965 1049.698975 1058.947998 1065.797974 1061.687988 1046.608032 1021.768005 1016.447998 1014.268005 1012.278015 1011.208008 1012.898010 1012.067017 996.197021 1020.276978 1035.317017 1051.136963 1065.646973 1079.427002 1095.276978 1103.067017 1117.437012 1134.396973 1151.666016 1173.066040 1192.595947 1198.286011 1202.475952 1211.895996 1235.586060 1254.125977 1278.755981 1295.166016 1313.176025 1333.186035 1368.645020 1380.425049 1384.375000 1389.494995 1385.305054 1367.805054 1366.224976 1356.364990 1346.564941 1341.915039 1337.724976 1341.625000 1346.284058 1361.343994 1373.703979 1389.183960 1397.723999 1405.203979 1405.124023 1402.443970 1394.524048 1385.024048 1378.124023 1401.583984 1408.292969 1416.522949 1421.223022 1431.333008 1444.113037 1454.593018 1463.203003 1460.522949 1469.152954 1481.652954 1497.333008 1510.833008 1524.453003 1541.262939 1555.092041 1560.302002 1570.901978 1582.802002 1610.371948 1631.332031 1646.911987 1657.472046 1688.182007 1709.011963 1727.482056 1747.452026 1760.781982 1766.581055 1770.571045 1756.531006 1739.860962 1730.801025 1730.380981 1738.661011 1760.161011 1772.911011 1788.590942 1790.911011 1788.360962 1788.270996 1797.250977 1809.651001 1814.729980 1818.069946 -9999.0 -9999.0 -9999.0 -9999.0 -9999.0 -9999.0 -9999.0 -9999.0 -9999.0 -9999.0 -9999.0 -9999.0 -9999.0 -9999.0 -9999.0 -9999.0 -9999.0 -9999.0 -9999.0 -9999.0 -9999.0 -9999.0 -9999.0 -9999.0 -9999.0 -9999.0 -9999.0 -9999.0 -9999.0 -9999.0 -9999.0 -9999.0 -9999.0 -9999.0 -9999.0 -9999.0 -9999.0 -9999.0 -9999.0 -9999.0 -9999.0 -9999.0 -9999.0 -9999.0 -9999.0 -9999.0 -9999.0 -9999.0 -9999.0 -9999.0 -9999.0 -9999.0 -9999.0 -9999.0 -9999.0 -9999.0
308.707001 311.989014 314.950012 322.141998 326.143005 328.885010 331.356995 333.958008 336.399994 338.640991 341.113007 345.243988 352.075989 358.388000 365.539001 373.760010 380.720001 385.191010 391.371002 396.932007 400.182007 400.731995 402.572998 404.893005 407.424011 409.843994 412.334015 414.734985 418.024994 421.626007 425.575989 427.705994 429.976990 432.407013 434.546997 436.988007 438.888000 440.588989 441.759003 442.808990 439.369995 433.820007 420.110992 407.031006 398.170990 393.671997 388.312012 382.222992 378.333008 370.102997 359.264008 343.414001 330.764008 332.595001 339.375000 339.216003 343.096008 347.675995 355.807007 363.346985 369.558014 372.417999 381.398010 385.348999 389.359009 394.070007 387.029999 397.839996 405.360992 411.290985 417.152008 422.842011 427.261993 431.942993 436.863007 442.263000 448.194000 452.813995 457.984985 462.484985 469.614990 475.476013 481.325989 485.136993 491.187012 497.546997 504.118011 508.687988 511.158997 515.749023 520.598999 524.770020 528.679993 532.411011 536.551025 544.901001 553.031982 557.362000 561.382996 565.742981 571.112976 576.374023 581.963989 587.414978 591.414978 597.994995 601.005981 606.426025 612.426025 616.767029 627.307007 639.898010 651.177979 661.547974 672.338989 680.598999 691.409973 700.809998 717.440002 733.190979 744.661011 758.411987 771.461975 781.432007 787.502991 794.973022 801.924011 806.674011 815.064026 827.224976 837.224976 850.875977 861.166016 869.625977 880.067017 889.687012 901.788025 906.607971 914.297974 918.778992 915.968994 922.950012 929.710022 934.190002 938.530029 940.580017 946.000000 952.539978 962.010010 974.919983 988.869995 999.700012 1014.929016 1024.348999 1029.609009 1025.838989 1022.908997 1032.729004 1042.159058 1052.068970 1061.159058 1070.989014 1076.139038 1073.407959 1057.858032 1033.508057 1030.848022 1028.848022 1028.187988 1026.067993 1026.868042 1027.897949 1015.547974 1025.187988 1031.078003 1038.477051 1055.357056 1070.496948 1083.776978 1098.457031 1118.116943 1137.756958 1150.807007 1162.016968 1171.286987 1178.197021 1191.587036 1214.066040 1229.095947 1245.895996 1265.556030 1288.355957 1314.095947 1339.615967 1368.735962 1380.536011 1392.666016 1397.345947 1398.696045 1385.224976 1382.824951 1370.025024 1362.415039 1357.244995 1351.844971 1356.625000 1357.625000 1367.285034 1380.234985 1395.714966 1406.295044 1416.375000 1417.984009 1414.854004 1405.973999 1399.004028 1388.473999 1401.793945 1418.254028 1428.673950 1433.973999 1442.703979 1452.654053 1465.254028 1486.053955 1478.973999 1478.993042 1487.223022 1505.223022 1517.503052 1532.272949 1547.863037 1562.743042 1572.522949 1580.322998 1592.363037 1614.822998 1633.162964 1652.662964 1667.542969 1680.483032 1699.692017 1726.001953 1744.381958 1764.401978 1776.062012 1774.041992 1764.312012 1754.491943 1747.901978 1748.651978 1753.771973 1781.582031 1796.281982 1800.482056 1801.991943 1801.352051 1799.720947 1803.120972 1809.531006 1815.390991 1820.901001 -9999.0 -9999.0 -9999.0 -9999.0 -9999.0 -9999.0 -9999.0 -9999.0 -9999.0 -9999.0 -9999.0 -9999.0 -9999.0 -9999.0 -9999.0 -9999.0 -9999.0 -9999.0 -9999.0 -9999.0 -9999.0 -9999.0 -9999.0 -9999.0 -9999.0 -9999.0 -9999.0 -9999.0 -9999.0 -9999.0 -9999.0 -9999.0 -9999.0 -9999.0 -9999.0 -9999.0 -9999.0 -9999.0 -9999.0 -9999.0 -9999.0 -9999.0 -9999.0 -9999.0 -9999.0 -9999.0 -9999.0 -9999.0 -9999.0 -9999.0 -9999.0 -9999.0 -9999.0 -9999.0 -9999.0 -9999.0
307.006989 312.618988 315.799988 321.842011 325.532989 328.065002 330.337006 332.018005 334.470001 337.270996 340.562988 344.794006 351.406006 357.798004 366.239014 374.649994 381.230011 386.691010 393.360992 396.641998 396.261993 397.851990 399.252991 401.923004 404.473999 407.303986 410.123993 412.845001 415.984985 419.776001 425.006012 427.446014 430.006989 432.867004 434.997009 437.247986 439.018005 440.428986 441.419006 443.039001 436.950012 429.200012 414.480988 404.170990 397.170990 390.951996 385.022003 380.162994 373.363007 361.463013 347.813995 330.933990 335.165009 339.924988 345.454987 347.105988 349.865997 356.635986 364.527008 371.066986 376.757996 381.247986 384.578003 387.368988 391.128998 396.609985 400.720001 393.589996 406.240997 415.210999 421.821991 429.071991 430.712006 434.423004 438.953003 443.463989 451.614014 454.533997 458.934998 464.184998 471.645996 479.705994 482.955994 487.237000 493.846985 499.756989 505.358002 509.817993 512.638977 516.818970 522.379028 527.469971 531.130005 535.020996 540.830994 548.080994 555.822021 559.642029 564.223022 568.632996 572.872986 577.633972 583.924011 591.155029 597.205017 602.885010 608.666016 614.416016 621.447021 624.296997 627.786987 635.888000 649.697998 664.578979 676.838989 684.919006 694.780029 707.500000 722.690979 738.310974 752.161011 765.221985 778.331970 790.432983 798.942993 806.622986 812.864014 819.054016 823.434998 832.015015 844.695007 857.195984 869.245972 878.135986 888.077026 899.036987 904.908020 913.057983 919.458008 923.799011 923.258972 928.859985 937.010010 943.400024 946.349976 950.809998 953.659973 961.070007 971.690002 985.669983 996.940002 1008.359985 1021.359985 1033.329956 1043.040039 1040.788940 1038.588989 1042.499023 1050.979004 1060.218994 1071.369019 1080.438965 1086.448975 1083.869019 1065.718994 1051.578979 1045.019043 1043.797974 1044.557983 1040.738037 1041.637939 1041.328003 1027.458008 1028.807983 1051.608032 1052.147949 1044.478027 1058.887939 1073.728027 1094.396973 1119.827026 1127.496948 1138.516968 1148.857056 1154.827026 1172.197021 1187.947021 1222.327026 1239.536987 1255.557007 1270.977051 1293.016968 1314.666016 1332.826050 1361.206055 1368.916016 1385.706055 1397.526001 1403.485962 1400.796021 1402.015991 1392.145996 1379.625977 1373.056030 1366.865967 1370.056030 1371.665039 1374.744995 1386.265015 1401.895020 1413.944946 1427.454956 1431.974976 1429.275024 1421.204956 1411.395020 1398.864990 1409.584961 1420.305054 1434.994995 1447.894043 1455.843994 1466.114014 1483.894043 1487.303955 1493.973999 1493.904053 1496.323975 1505.833984 1521.774048 1538.563965 1555.953979 1574.163940 1584.984009 1592.904053 1603.014038 1624.723022 1639.603027 1653.562988 1671.593018 1692.503052 1720.292969 1729.812988 1744.633057 1762.473022 1777.993042 1776.733032 1773.822998 1767.692993 1766.192993 1765.623047 1771.863037 1792.613037 1798.241943 1803.692017 -9999.0 1810.112061 1806.982056 1811.312012 1814.192017 1815.991943 -9999.0 -9999.0 -9999.0 -9999.0 -9999.0 -9999.0 -9999.0 -9999.0 -9999.0 -9999.0 -9999.0 -9999.0 -9999.0 -9999.0 -9999.0 -9999.0 -9999.0 -9999.0 -9999.0 -9999.0 -9999.0 -9999.0 -9999.0 -9999.0 -9999.0 -9999.0 -9999.0 -9999.0 -9999.0 -9999.0 -9999.0 -9999.0 -9999.0 -9999.0 -9999.0 -9999.0 -9999.0 -9999.0 -9999.0 -9999.0 -9999.0 -9999.0 -9999.0 -9999.0 -9999.0 -9999.0 -9999.0 -9999.0 -9999.0 -9999.0 -9999.0 -9999.0 -9999.0 -9999.0 -9999.0 -9999.0 -9999.0
306.136993 311.128998 317.679993 321.141998 325.322998 327.255005 328.946014 330.528015 332.799988 335.920990 339.442993 347.493988 355.526001 358.037994 365.428986 375.649994 381.279999 385.450989 392.640991 392.302002 391.721985 392.402008 394.953003 398.062988 402.384003 404.854004 408.053986 410.915009 414.165009 418.276001 423.545990 426.855988 429.766998 432.946991 435.266998 437.388000 438.967987 439.979004 440.239014 433.968994 424.600006 417.290009 408.920990 402.931000 395.450989 387.381989 382.671997 379.092987 368.013000 350.222992 336.044006 328.063995 339.795013 342.054993 347.095001 352.735992 357.816010 362.407013 370.377014 376.506989 380.118011 385.187988 390.007996 390.579010 391.569000 398.630005 403.109985 405.820007 411.420990 417.871002 424.332001 429.391998 431.782013 435.972992 439.622986 444.674011 452.623993 457.273987 461.644989 465.424988 474.226013 481.675995 485.075989 490.147003 495.657013 501.947998 505.657990 510.638000 514.119019 519.049011 524.440002 529.940002 533.729980 538.531006 544.080994 550.911987 558.351990 563.091980 567.442993 572.502991 577.473999 581.434021 588.693970 594.854980 602.275024 609.265015 615.236023 622.885986 629.577026 638.656982 645.156982 647.708008 651.067993 663.609009 676.879028 688.638977 699.270020 711.369995 727.171021 744.710999 759.770996 772.442017 785.052002 798.653015 808.252991 817.242981 824.153992 831.403992 837.864990 840.984985 853.474976 864.476013 874.796021 886.577026 896.577026 906.997009 914.708008 918.208008 922.758972 928.289001 932.208984 937.099976 943.750000 949.070984 955.531006 957.270020 961.820007 970.989990 981.969971 996.419983 1008.419983 1017.849976 1030.050049 1043.589966 1051.719971 1055.030029 1051.949951 1053.448975 1060.909058 1070.058960 1080.529053 1090.548950 1100.229004 1094.029053 1079.598999 1066.038940 1062.739014 1060.369019 1060.489014 1057.838989 1055.988037 1054.407959 1043.167969 1030.468018 1053.407959 1068.567993 1065.907959 1059.147949 1067.537964 1085.098022 1098.307983 1112.907959 1122.828003 1139.197998 1156.006958 1176.786987 1211.337036 1235.187012 1245.717041 1258.057007 1273.776978 1293.246948 1308.197021 1322.087036 1340.396973 1359.786987 1372.207031 1388.607056 1406.135986 1411.196045 1413.786011 1412.865967 1399.845947 1391.286011 1381.015991 1385.286011 1385.385986 1384.495972 1393.046021 1407.176025 1419.885986 1435.965942 1444.865967 1442.916016 1434.714966 1423.775024 1412.214966 1415.324951 1430.405029 1442.584961 1457.454956 1467.435059 1477.555054 1491.844971 1499.785034 1512.765015 1510.344971 1511.864990 1512.045044 1521.224976 1536.144043 1550.553955 1578.703979 1597.823975 1606.923950 1625.563965 1634.734009 1653.223999 1678.723999 1685.183960 1698.784058 1717.303955 1737.134033 1757.354004 1771.904053 1779.274048 1777.374023 -9999.0 -9999.0 -9999.0 -9999.0 -9999.0 -9999.0 -9999.0 -9999.0 -9999.0 -9999.0 1811.733032 1819.113037 1820.223022 1822.932983 -9999.0 -9999.0 -9999.0 -9999.0 -9999.0 -9999.0 -9999.0 -9999.0 -9999.0 -9999.0 -9999.0 -9999.0 -9999.0 -9999.0 -9999.0 -9999.0 -9999.0 -9999.0 -9999.0 -9999.0 -9999.0 -9999.0 -9999.0 -9999.0 -9999.0 -9999.0 -9999.0 -9999.0 -9999.0 -9999.0 -9999.0 -9999.0 -9999.0 -9999.0 -9999.0 -9999.0 -9999.0 -9999.0 -9999.0 -9999.0 -9999.0 -9999.0 -9999.0 -9999.0 -9999.0 -9999.0 -9999.0 -9999.0 -9999.0 -9999.0 -9999.0 -9999.0 -9999.0 -9999.0 -9999.0 -9999.0 -9999.0
306.657013 309.959015 312.920013 321.592010 324.882996 325.875000 327.306000 329.217987 332.040009 335.520996 342.523010 351.843994 355.156006 358.016998 364.928986 372.399994 379.339996 384.281006 387.490997 386.582001 387.391998 388.652008 391.493011 395.553009 399.783997 402.544006 405.984009 409.274994 413.095001 417.415985 421.936005 425.976013 429.166992 432.826996 435.087006 437.148010 438.118011 438.359009 433.019012 419.449005 412.200012 407.910004 405.381012 402.001007 396.170990 384.441986 379.242004 367.692993 356.243011 336.683014 327.894012 334.723999 339.265015 345.394989 351.565002 354.506012 361.276001 368.897003 374.106995 380.027008 384.877991 389.208008 395.938995 400.949005 397.428986 400.119995 404.350006 411.031006 415.640991 414.531006 419.582001 428.971985 432.182007 436.342987 443.683014 449.924011 453.093994 457.924011 462.834991 466.494995 476.645996 482.806000 486.675995 493.127014 498.256989 503.988007 509.088013 511.608002 515.338989 521.508972 526.419983 531.359985 538.559998 542.981018 548.091003 554.721985 561.742004 565.492004 571.893005 577.802979 583.854004 586.734009 593.494019 601.534973 609.505005 616.106018 623.995972 632.426025 640.706970 649.036987 656.357971 662.357971 665.377991 665.088989 676.499023 687.700012 703.710022 717.359985 734.421021 751.810974 766.562012 780.721985 795.831970 806.172974 817.203003 825.734009 833.763977 842.013977 849.205017 857.104980 863.955994 875.476013 882.435974 890.226990 903.216980 913.648010 920.278015 926.538025 928.888977 932.679016 939.750000 945.140015 950.289978 954.630981 957.120972 959.770996 965.080994 978.020020 992.320007 1006.989990 1018.460022 1029.099976 1040.380005 1052.880005 1063.349976 1067.760010 1067.560059 1068.569946 1070.859985 1080.310059 1088.668945 1100.918945 1110.088989 1103.788940 1090.229004 1080.918945 1077.708984 1084.149048 1075.168945 1075.129028 1070.538940 1067.409058 1057.318970 1046.369019 1048.619019 1070.478027 1080.238037 1079.387939 1081.677979 1079.208008 1087.437988 1107.177979 1124.608032 1139.167969 1162.197998 1178.037964 1206.907959 1218.447998 1236.147949 1256.598022 1272.006958 1285.296997 1298.847046 1313.087036 1331.307007 1344.447021 1363.246948 1390.427002 1403.626953 1413.756958 1420.126953 1424.776978 1422.687012 1408.557007 1396.136963 1400.357056 1401.365967 1399.556030 1403.786011 1413.005981 1425.416016 1442.316040 1451.765991 1456.645996 1446.696045 1439.735962 1427.196045 1423.625977 1440.576050 1456.156006 1464.426025 1477.725952 1487.375977 1498.045044 1509.474976 1521.005005 1526.675049 1526.035034 1524.525024 1528.824951 1541.785034 1551.994995 1565.635010 1596.094971 1617.295044 1629.744995 1644.474976 1676.484985 1689.775024 1701.775024 1707.775024 1719.834961 1734.813965 1751.193970 1766.254028 1775.854004 1776.913940 -9999.0 -9999.0 -9999.0 -9999.0 -9999.0 -9999.0 -9999.0 -9999.0 -9999.0 -9999.0 -9999.0 1819.984009 1820.644043 1823.093994 -9999.0 -9999.0 -9999.0 -9999.0 -9999.0 -9999.0 -9999.0 -9999.0 -9999.0 -9999.0 -9999.0 -9999.0 -9999.0 -9999.0 -9999.0 -9999.0 -9999.0 -9999.0 -9999.0 -9999.0 -9999.0 -9999.0 -9999.0 -9999.0 -9999.0 -9999.0 -9999.0 -9999.0 -9999.0 -9999.0 -9999.0 -9999.0 -9999.0 -9999.0 -9999.0 -9999.0 -9999.0 -9999.0 -9999.0 -9999.0 -9999.0 -9999.0 -9999.0 -9999.0 -9999.0 -9999.0 -9999.0 -9999.0 -9999.0 -9999.0 -9999.0 -9999.0 -9999.0 -9999.0 -9999.0 -9999.0 -9999.0
306.127014 310.628998 310.779999 318.141998 323.102997 324.174988 325.205994 328.338013 333.019989 338.161011 344.792999 351.734009 354.885986 357.737000 364.009003 368.299988 373.920013 378.071014 381.110992 382.462006 384.161987 386.631989 389.092987 392.463013 396.563995 400.894012 404.204010 408.105011 412.195007 416.415985 420.696014 425.135986 428.427002 432.207001 434.796997 436.157990 436.687988 432.239014 419.868988 410.118988 407.059998 403.480011 401.131012 399.281006 397.450989 382.522003 370.411987 359.562988 347.903015 330.032989 331.264008 337.153992 344.695007 350.454987 355.855011 360.496002 362.776001 367.957001 370.747009 377.217010 384.967987 390.488007 396.959015 403.628998 403.639008 403.109985 407.809998 414.691010 420.901001 425.001007 429.812012 431.432007 433.643005 442.183014 447.782989 451.973999 455.773987 460.695007 463.005005 468.535004 477.566010 483.446014 489.536987 494.856995 500.326996 505.328003 511.268005 514.138977 517.408997 523.148987 529.020020 535.570007 541.799988 546.710999 552.481018 559.882019 566.122009 570.302002 575.713013 582.062988 589.903992 595.414001 601.804016 609.815002 616.515015 625.866028 633.736023 642.695984 651.156982 658.817017 665.607971 672.297974 679.968018 681.148987 682.039001 697.840027 707.979980 719.109985 734.721008 750.500977 766.362000 785.171997 803.481995 814.143005 824.252991 834.434021 842.783997 851.684021 859.585022 866.885010 875.306030 886.955994 892.015991 899.387024 908.327026 917.918030 924.877991 931.627991 937.859009 942.429016 945.609985 952.669983 958.971008 961.171021 968.431030 967.960999 973.140991 987.260986 1000.341003 1013.531006 1027.969971 1037.880005 1051.500000 1064.270020 1072.199951 1079.699951 1082.369995 1081.540039 1082.119995 1088.189941 1097.489990 1110.640015 1120.689941 1115.989990 1101.159058 1096.538940 1104.389038 1113.188965 1096.269043 1090.218994 1085.779053 1081.698975 1070.958984 1062.698975 1053.218994 1070.208984 1091.838989 1094.899048 1100.318970 1099.859009 1097.008057 1095.578003 1116.958008 1132.998047 1152.547974 1163.998047 1197.218018 1215.358032 1232.248047 1253.968018 1263.687988 1276.657959 1291.137939 1306.647949 1322.608032 1339.417969 1357.218018 1375.707031 1392.737061 1407.996948 1423.766968 1430.587036 1435.107056 1423.327026 1411.457031 1416.546997 1419.687012 1415.126953 1416.187012 1425.807007 1433.546997 1448.156982 1460.197021 1466.467041 1460.666992 1453.786011 1444.206055 1434.706055 1444.686035 1462.245972 1477.176025 1484.995972 1495.556030 1507.666016 1518.975952 1530.855957 1541.706055 1542.166016 1536.786011 1537.615967 1545.735962 1561.345947 1575.735962 1592.125977 1610.975952 1634.895996 1661.935059 1678.824951 1692.015015 1709.555054 1722.484985 1737.135010 1745.224976 1757.314941 1767.704956 1780.685059 1783.994995 -9999.0 -9999.0 -9999.0 -9999.0 -9999.0 -9999.0 -9999.0 -9999.0 -9999.0 -9999.0 -9999.0 1818.854980 1825.413940 1828.014038 -9999.0 -9999.0 -9999.0 -9999.0 -9999.0 -9999.0 -9999.0 -9999.0 -9999.0 -9999.0 -9999.0 -9999.0 -9999.0 -9999.0 -9999.0 -9999.0 -9999.0 -9999.0 -9999.0 -9999.0 -9999.0 -9999.0 -9999.0 -9999.0 -9999.0 -9999.0 -9999.0 -9999.0 -9999.0 -9999.0 -9999.0 -9999.0 -9999.0 -9999.0 -9999.0 -9999.0 -9999.0 -9999.0 -9999.0 -9999.0 -9999.0 -9999.0 -9999.0 -9999.0 -9999.0 -9999.0 -9999.0 -9999.0 -9999.0 -9999.0 -9999.0 -9999.0 -9999.0 -9999.0 -9999.0 -9999.0 -9999.0
305.307007 311.988007 309.269989 314.362000 319.993011 321.915009 323.325989 328.437988 333.539001 338.121002 344.233002 350.914001 354.946014 357.516998 359.778992 365.329987 369.070007 372.490997 376.990997 378.511993 381.881989 384.541992 387.183014 390.203003 394.123993 399.253998 402.813995 407.575012 411.505005 416.145996 420.216003 424.925995 427.867004 431.256989 434.266998 434.958008 435.347992 428.299011 413.959015 407.378998 403.049988 400.549988 398.760986 397.591003 394.740997 380.261993 364.951996 353.092987 343.923004 331.002991 330.854004 340.664001 350.204987 355.904999 361.674988 361.485992 361.855988 363.277008 368.166992 376.196991 381.567993 385.298004 390.759003 396.669006 402.058990 407.019989 412.250000 417.760986 423.890991 429.050995 433.731995 440.002014 442.183014 445.792999 449.542999 452.354004 455.854004 461.265015 463.575012 471.165009 479.216003 485.485992 491.527008 496.737000 502.407013 507.197998 513.038025 516.539001 521.578979 526.138977 531.729980 538.049988 545.020996 551.971008 559.421021 566.221985 571.661987 575.932983 581.913025 588.263000 594.773987 601.794006 611.445007 619.494995 627.674988 635.976013 644.135986 652.536987 660.127014 667.497009 674.567993 682.627991 690.578979 698.359009 696.179016 703.789978 715.760010 726.921021 736.460999 747.510986 764.521973 782.651978 797.153015 811.033020 829.692993 841.934021 851.994019 860.885010 869.794983 875.924988 885.846008 897.395996 899.687012 909.216980 913.517029 922.627991 930.357971 937.939026 946.169006 952.958984 954.159973 963.330017 968.580994 971.380981 973.450989 977.950989 982.390991 991.721008 1008.151001 1022.130981 1035.191040 1048.250977 1061.480957 1071.079956 1079.469971 1088.050049 1096.650024 1097.040039 1096.540039 1098.380005 1107.229980 1117.250000 1127.560059 1128.680054 1115.770020 1113.930054 1120.569946 1128.270020 1122.030029 1106.928955 1102.098999 1095.718994 1086.659058 1081.229004 1068.269043 1071.159058 1092.009033 1110.529053 1113.788940 1118.058960 1109.109009 1114.379028 1110.009033 1122.848999 1136.298950 1150.338989 1171.437988 1204.758057 1230.797974 1243.108032 1257.427979 1275.067993 1289.807983 1305.527954 1323.907959 1341.608032 1355.348022 1370.787964 1388.667969 1408.267944 1427.557983 1435.947998 1443.937988 1441.277954 1428.017944 1431.286987 1436.937012 1432.796997 1429.796997 1441.166992 1449.266968 1453.996948 1467.967041 1475.577026 1473.707031 1467.296997 1462.536987 1447.087036 1463.707031 1468.697021 1485.506958 1494.967041 1502.567017 1515.496948 1527.317017 1544.046997 1557.766968 1562.176025 1562.406006 1549.206055 1554.375977 1567.406006 1585.635986 1599.576050 1620.556030 1649.595947 1682.265991 1692.276001 1696.255981 1711.605957 1731.666016 1746.446045 1758.625977 1765.965942 1776.475952 1783.946045 -9999.0 -9999.0 -9999.0 -9999.0 -9999.0 -9999.0 -9999.0 -9999.0 -9999.0 -9999.0 -9999.0 -9999.0 1823.265015 1827.165039 1829.415039 -9999.0 -9999.0 -9999.0 -9999.0 -9999.0 -9999.0 -9999.0 -9999.0 -9999.0 -9999.0 -9999.0 -9999.0 -9999.0 -9999.0 -9999.0 -9999.0 -9999.0 -9999.0 -9999.0 -9999.0 -9999.0 -9999.0 -9999.0 -9999.0 -9999.0 -9999.0 -9999.0 -9999.0 -9999.0 -9999.0 -9999.0 -9999.0 -9999.0 -9999.0 -9999.0 -9999.0 -9999.0 -9999.0 -9999.0 -9999.0 -9999.0 -9999.0 -9999.0 -9999.0 -9999.0 -9999.0 -9999.0 -9999.0 -9999.0 -9999.0 -9999.0 -9999.0 -9999.0 -9999.0 -9999.0 -9999.0 -9999.0
305.427002 309.588013 309.070007 312.092010 315.412994 318.375000 322.316010 328.157990 331.819000 337.251007 342.912994 346.753998 350.056000 353.476990 355.148987 358.640015 366.690002 369.841003 374.751007 377.971985 380.951996 383.441986 386.162994 389.042999 392.484009 397.114014 401.313995 407.274994 411.625000 415.626007 419.846008 424.575989 427.726990 430.677002 433.007996 432.157990 433.738007 426.169006 413.759003 404.648987 401.179993 398.869995 397.210999 391.020996 384.270996 379.332001 363.071991 348.662994 337.803009 329.292999 324.753998 338.204010 348.934998 355.345001 360.524994 361.915985 364.635986 365.527008 367.006989 374.636993 381.558014 387.778015 391.658997 395.979004 404.449005 410.920013 415.519989 422.191010 427.501007 432.941010 437.571991 442.362000 444.683014 449.733002 451.963013 456.364014 460.063995 463.755005 468.714996 473.255005 479.855988 487.925995 493.187012 499.316986 505.087006 510.738007 515.098022 518.768982 523.968994 528.208984 534.219971 541.510010 548.260986 556.681030 565.200989 572.671997 578.971985 582.603027 590.083008 598.153015 607.314026 617.254028 623.104980 630.104980 637.664978 645.666016 654.736023 662.307007 669.317017 676.617004 684.007996 693.728027 701.708984 710.518982 709.289001 708.849976 722.219971 733.741028 745.270996 757.392029 769.231995 778.351990 791.513000 808.163025 830.494019 846.153992 859.143982 869.315002 880.125000 888.806030 897.916016 903.486023 908.127014 916.887024 923.177979 925.817993 933.908020 942.059021 950.008972 960.770020 968.679993 966.349976 975.310974 979.151001 981.560974 985.481018 992.541016 1002.250977 1017.570984 1029.640991 1041.901001 1055.161011 1068.750977 1080.140991 1090.220947 1099.181030 1107.969971 1112.390015 1113.510010 1115.719971 1114.709961 1125.400024 1135.790039 1140.069946 1131.550049 1133.010010 1137.640015 1144.910034 1135.390015 1123.209961 1117.530029 1111.089966 1103.250000 1094.979980 1084.788940 1077.889038 1095.818970 1115.468994 1128.279053 1131.409058 1122.538940 1132.928955 1127.098999 1132.389038 1131.668945 1144.269043 1156.729004 1207.188965 1222.288940 1241.239014 1257.869019 1278.529053 1293.458984 1305.698975 1320.037964 1335.917969 1352.358032 1370.628052 1386.057983 1402.218018 1417.307983 1439.618042 1447.137939 1449.947998 1443.728027 1444.307983 1452.758057 1457.748047 1445.937988 1453.287964 1464.687988 1470.047974 1476.238037 1483.738037 1485.557983 1480.907959 1471.657959 1459.546997 1474.406982 1483.626953 1490.947021 1503.916992 1513.447021 1524.526978 1535.616943 1558.817017 1574.166992 1576.937012 1571.156982 1569.057007 1563.347046 1580.126953 1593.036987 1603.656982 1633.906982 1645.496948 1677.746948 1694.807007 1709.217041 1719.847046 1734.837036 1749.636963 1767.827026 1775.916992 1783.156982 -9999.0 -9999.0 -9999.0 -9999.0 -9999.0 -9999.0 -9999.0 -9999.0 -9999.0 -9999.0 -9999.0 -9999.0 -9999.0 -9999.0 -9999.0 -9999.0 -9999.0 -9999.0 -9999.0 -9999.0 -9999.0 -9999.0 -9999.0 -9999.0 -9999.0 -9999.0 -9999.0 -9999.0 -9999.0 -9999.0 -9999.0 -9999.0 -9999.0 -9999.0 -9999.0 -9999.0 -9999.0 -9999.0 -9999.0 -9999.0 -9999.0 -9999.0 -9999.0 -9999.0 -9999.0 -9999.0 -9999.0 -9999.0 -9999.0 -9999.0 -9999.0 -9999.0 -9999.0 -9999.0 -9999.0 -9999.0 -9999.0 -9999.0 -9999.0 -9999.0 -9999.0 -9999.0 -9999.0 -9999.0 -9999.0 -9999.0 -9999.0 -9999.0 -9999.0 -9999.0 -9999.0 -9999.0 -9999.0
305.117004 307.808014 309.079987 309.411987 309.322998 312.714996 320.365997 322.768005 330.109009 334.471008 340.102997 347.074005 353.085999 357.576996 361.968994 369.130005 370.809998 373.001007 375.510986 377.752014 380.101990 382.691986 385.213013 388.092987 392.053986 396.454010 401.134003 406.834991 411.755005 416.105988 420.365997 425.135986 429.196991 431.157013 431.377991 431.428009 431.138000 428.569000 415.338989 402.700012 399.459991 396.609985 390.411011 384.990997 382.540985 375.992004 362.962006 344.842987 333.983002 324.173004 337.984009 349.854004 353.695007 356.095001 362.394989 367.216003 370.316010 371.337006 375.046997 379.207001 383.127991 388.358002 393.428986 398.998993 408.329010 415.109985 418.290009 423.561005 430.061005 435.721008 442.071991 444.272003 447.252991 451.062988 455.183990 458.514008 462.354004 470.714996 472.494995 474.325989 477.395996 484.455994 493.467010 500.177002 505.997986 512.148010 517.317993 523.379028 526.458984 532.429993 537.900024 546.150024 555.171021 564.721008 574.572021 579.731995 586.341980 592.543030 600.543030 612.203979 621.254028 629.304016 634.364990 640.635010 648.466003 656.185974 663.366028 671.836975 679.487000 686.468018 693.997986 703.918030 712.939026 718.669006 719.890015 719.349976 725.919983 736.500977 751.741028 763.771973 776.831970 788.682007 801.153015 811.312988 825.104004 845.343994 862.994019 874.804993 886.275024 897.645996 907.335999 914.216003 917.517029 921.456970 927.578003 934.877991 939.888000 949.689026 960.109009 969.159973 978.929993 979.370972 981.190979 985.101013 989.031006 992.661011 998.630981 1008.070984 1023.370972 1037.110962 1048.590942 1061.071045 1074.071045 1088.661011 1099.291016 1110.520996 1118.031006 1126.581055 1127.331055 1130.791016 1133.589966 1137.920044 1146.030029 1151.439941 1148.859985 1150.650024 1169.569946 1163.430054 1151.040039 1144.790039 1133.079956 1127.140015 1118.599976 1111.420044 1101.760010 1085.790039 1102.060059 1119.439941 1134.109985 1145.329956 1139.339966 1146.859009 1144.448975 1149.149048 1148.269043 1150.178955 1153.438965 1164.058960 1214.178955 1238.448975 1259.279053 1275.668945 1287.048950 1300.798950 1317.558960 1332.928955 1345.649048 1360.538940 1368.068970 1379.729004 1394.729004 1412.188965 1418.909058 1437.078979 1452.779053 1456.718018 1465.157959 1472.177979 1462.608032 1464.238037 1472.647949 1479.128052 1485.118042 1489.258057 1494.618042 1494.078003 1483.488037 1472.817993 1479.718018 1493.238037 1500.828003 1510.238037 1527.108032 1536.858032 1547.187988 1559.027954 1576.458008 1592.088013 1588.968018 1587.228027 1579.218018 1592.998047 1608.328003 1630.197998 1642.218018 1655.207031 1672.077026 1706.156982 1723.276978 1733.437012 1738.996948 1755.187012 1772.876953 1782.916992 -9999.0 -9999.0 -9999.0 -9999.0 -9999.0 -9999.0 -9999.0 -9999.0 -9999.0 -9999.0 -9999.0 -9999.0 -9999.0 -9999.0 -9999.0 -9999.0 -9999.0 -9999.0 -9999.0 -9999.0 -9999.0 -9999.0 -9999.0 -9999.0 -9999.0 -9999.0 -9999.0 -9999.0 -9999.0 -9999.0 -9999.0 -9999.0 -9999.0 -9999.0 -9999.0 -9999.0 -9999.0 -9999.0 -9999.0 -9999.0 -9999.0 -9999.0 -9999.0 -9999.0 -9999.0 -9999.0 -9999.0 -9999.0 -9999.0 -9999.0 -9999.0 -9999.0 -9999.0 -9999.0 -9999.0 -9999.0 -9999.0 -9999.0 -9999.0 -9999.0 -9999.0 -9999.0 -9999.0 -9999.0 -9999.0 -9999.0 -9999.0 -9999.0 -9999.0 -9999.0 -9999.0 -9999.0 -9999.0 -9999.0
305.166992 306.317993 308.420013 309.821014 309.532989 309.994995 319.355988 325.518005 330.049011 335.080994 341.381989 349.234009 356.765991 360.826996 364.789001 368.149994 370.920013 372.431000 374.591003 376.902008 378.742004 381.152008 384.023010 387.412994 391.694000 396.723999 400.553986 406.924988 411.934998 417.385986 422.306000 426.556000 429.286987 429.927002 429.868011 430.537994 430.287994 430.348999 418.088989 402.170013 397.579987 393.010010 388.390991 385.631012 378.881989 373.122009 363.391998 346.433014 336.352997 323.694000 333.963989 345.653992 356.375000 360.065002 364.196014 369.846008 377.895996 383.356995 386.457001 387.048004 389.608002 396.858002 404.819000 408.729004 415.019989 417.209991 421.690002 427.151001 434.710999 440.381989 444.761993 448.682007 452.053009 454.372986 457.343994 461.294006 466.283997 472.024994 472.845001 478.415985 481.346008 488.906006 495.677002 502.497009 509.787994 514.648010 520.617981 524.859009 530.888977 537.580017 543.929993 552.039978 563.890991 575.291016 581.961975 587.872009 594.302002 603.192993 613.583008 624.104004 634.064026 640.674011 646.594971 653.525024 660.375977 668.125977 674.666016 681.406982 689.716980 696.687988 703.588013 715.047974 723.499023 729.369019 731.619995 732.830017 731.460999 739.130981 760.440979 772.981995 784.692017 800.252991 815.362976 821.473022 832.903992 846.213989 860.614990 881.744995 893.145020 904.315979 914.085999 921.726990 931.557007 929.536987 934.057983 943.578003 947.939026 956.698975 965.729004 974.760010 981.729980 988.870972 991.710999 993.721008 996.942017 999.651001 1005.671021 1016.710999 1027.970947 1043.250977 1056.051025 1067.301025 1079.291016 1094.951050 1108.370972 1117.811035 1127.461060 1136.961060 1142.151001 1145.730957 1147.411011 1150.350952 1156.240967 1162.821045 1172.051025 1176.260986 1181.650024 1182.560059 1170.469971 1171.939941 1153.180054 1141.069946 1132.489990 1125.920044 1114.829956 1105.310059 1105.430054 1125.890015 1141.369995 1154.000000 1158.150024 1156.109985 1162.859985 1165.829956 1164.459961 1165.709961 1181.400024 1219.900024 1217.550049 1242.140015 1256.198975 1272.198975 1282.979004 1295.458984 1310.239014 1322.009033 1333.918945 1343.239014 1353.838989 1364.989014 1375.409058 1387.828979 1403.098999 1418.999023 1442.088989 1460.489014 1469.918945 1477.249023 1478.788940 1476.899048 1482.838989 1488.098999 1493.989014 1498.129028 1502.389038 1507.259033 1499.129028 1486.318970 1493.718994 1509.288940 1517.418945 1519.807983 1535.287964 1547.037964 1559.118042 1570.728027 1596.017944 1601.368042 1605.858032 1601.407959 1599.348022 1601.998047 1623.988037 1642.878052 1654.677979 1670.807983 1684.177979 1715.197998 1732.527954 1745.968018 1756.488037 1760.927979 1777.157959 1786.427979 -9999.0 -9999.0 -9999.0 -9999.0 -9999.0 -9999.0 -9999.0 -9999.0 -9999.0 -9999.0 -9999.0 -9999.0 -9999.0 -9999.0 -9999.0 -9999.0 -9999.0 -9999.0 -9999.0 -9999.0 -9999.0 -9999.0 -9999.0 -9999.0 -9999.0 -9999.0 -9999.0 -9999.0 -9999.0 -9999.0 -9999.0 -9999.0 -9999.0 -9999.0 -9999.0 -9999.0 -9999.0 -9999.0 -9999.0 -9999.0 -9999.0 -9999.0 -9999.0 -9999.0 -9999.0 -9999.0 -9999.0 -9999.0 -9999.0 -9999.0 -9999.0 -9999.0 -9999.0 -9999.0 -9999.0 -9999.0 -9999.0 -9999.0 -9999.0 -9999.0 -9999.0 -9999.0 -9999.0 -9999.0 -9999.0 -9999.0 -9999.0 -9999.0 -9999.0 -9999.0 -9999.0 -9999.0 -9999.0 -9999.0
303.737000 304.738007 306.989990 308.881012 309.773010 309.554993 319.115997 321.507996 325.468994 328.341003 334.082001 342.403992 350.365997 360.356995 363.949005 366.820007 369.320007 371.260986 373.170990 375.372009 377.791992 379.691986 383.032989 386.752991 392.273987 395.743988 400.753998 406.765015 412.565002 420.306000 424.165985 428.205994 428.707001 428.467010 428.118011 428.048004 428.428009 428.628998 422.648987 407.160004 395.750000 391.070007 388.490997 387.610992 377.691986 365.231995 356.951996 350.203003 340.183014 323.973999 333.303986 339.843994 350.524994 360.584991 363.156006 368.235992 376.955994 382.756989 386.717010 391.958008 396.497986 401.808014 408.069000 414.248993 419.000000 423.269989 427.040009 431.061005 438.131012 444.921997 449.441986 451.552002 457.692993 457.382996 460.104004 464.753998 469.084015 473.915009 478.334991 480.566010 488.506012 494.235992 499.286987 505.536987 512.257996 518.898010 525.648010 532.249023 538.158997 546.109985 552.270020 560.359985 570.690979 580.651001 589.351990 597.581970 605.703003 616.672974 623.353027 636.033997 645.653992 652.114990 659.604980 666.184998 671.995972 679.005981 685.456970 692.276978 700.247009 707.538025 716.328003 725.059021 734.369019 741.289001 744.669983 748.260010 741.700989 747.411011 759.760986 781.322021 794.512024 807.953003 826.893005 835.422974 845.354004 855.903992 867.585022 889.205017 902.065979 912.106018 919.585999 926.637024 938.206970 940.138000 942.908020 949.648010 957.789001 966.039001 975.289978 981.719971 989.739990 996.690979 999.231018 1001.781982 1005.942017 1006.961975 1013.411987 1025.362061 1038.770996 1050.291016 1060.061035 1072.490967 1083.020996 1097.760986 1112.581055 1124.970947 1135.480957 1146.701050 1153.671021 1157.451050 1160.390991 1160.130981 1165.711060 1172.130981 1182.931030 1190.541016 1196.600952 1197.281006 1187.951050 1180.010986 1164.661011 1154.951050 1147.811035 1138.939941 1130.069946 1122.209961 1110.209961 1126.709961 1147.880005 1161.930054 1173.319946 1168.619995 1178.920044 1191.390015 1200.349976 1228.229980 1229.489990 1245.099976 1231.020020 1232.920044 1242.119995 1252.859985 1271.439941 1282.209961 1300.119995 1309.589966 1319.979980 1330.459961 1342.449951 1353.849976 1365.310059 1377.630005 1391.660034 1413.069946 1441.698975 1459.098999 1469.798950 1483.999023 1490.879028 1489.159058 1493.538940 1498.389038 1504.458984 1509.208984 1510.788940 1519.639038 1518.269043 1499.769043 1507.798950 1529.769043 1544.958984 1539.529053 1544.418945 1554.889038 1570.479004 1582.678955 1602.269043 1618.058960 1625.359009 1617.208984 1613.489014 1614.529053 1626.889038 1650.938965 1683.328979 1695.708984 1707.468994 1723.529053 1739.389038 1763.598999 1773.629028 1777.298950 1783.458984 1789.009033 1788.968994 -9999.0 -9999.0 -9999.0 -9999.0 -9999.0 -9999.0 -9999.0 -9999.0 -9999.0 -9999.0 -9999.0 -9999.0 -9999.0 -9999.0 -9999.0 -9999.0 -9999.0 -9999.0 -9999.0 -9999.0 -9999.0 -9999.0 -9999.0 -9999.0 -9999.0 -9999.0 -9999.0 -9999.0 -9999.0 -9999.0 -9999.0 -9999.0 -9999.0 -9999.0 -9999.0 -9999.0 -9999.0 -9999.0 -9999.0 -9999.0 -9999.0 -9999.0 -9999.0 -9999.0 -9999.0 -9999.0 -9999.0 -9999.0 -9999.0 -9999.0 -9999.0 -9999.0 -9999.0 -9999.0 -9999.0 -9999.0 -9999.0 -9999.0 -9999.0 -9999.0 -9999.0 -9999.0 -9999.0 -9999.0 -9999.0 -9999.0 -9999.0 -9999.0 -9999.0 -9999.0 -9999.0 -9999.0 -9999.0
301.636993 304.067993 306.410004 308.091003 309.833008 309.325012 318.756012 322.738007 329.778992 336.770996 340.812012 336.514008 342.705994 351.016998 361.009003 365.269989 368.130005 370.281006 371.920990 373.761993 376.092010 379.052002 382.222992 386.203003 391.484009 395.324005 401.394012 409.114990 413.635010 421.256012 425.776001 426.946014 426.766998 426.187012 425.727997 425.548004 425.928009 426.769012 426.028992 409.399994 394.899994 391.450012 389.290985 388.290985 375.791992 361.872009 352.691986 341.122986 326.183014 324.373993 332.614014 340.334015 355.075012 360.334991 363.545990 367.466003 374.556000 381.677002 386.277008 393.178009 399.868011 402.888000 408.319000 412.049011 418.500000 425.200012 430.600006 437.071014 442.640991 448.782013 451.731995 454.062012 457.442993 460.083008 462.984009 467.364014 471.973999 477.554993 481.274994 486.145996 493.295990 498.886993 503.617004 509.606995 516.487976 521.697998 529.318970 538.359009 544.388977 549.830017 558.849976 568.120972 578.351013 588.241028 599.302002 607.682007 617.752991 628.223022 636.453003 646.664001 656.153992 664.354980 672.505005 678.844971 684.005981 690.325989 696.846985 703.947021 710.786987 719.278015 728.047974 736.289001 745.458984 751.630005 758.530029 759.820007 752.051025 756.620972 763.072021 777.052002 795.502014 811.132996 834.932983 852.864014 862.573975 870.453979 877.724976 894.744995 909.736023 920.546021 925.645996 935.216980 945.896973 952.518005 957.668030 957.617981 964.189026 974.619019 986.000000 992.830017 996.231018 1003.341003 1008.431030 1009.932007 1011.211975 1017.682007 1019.291992 1031.161987 1043.822021 1055.932007 1066.421997 1076.881958 1085.052002 1098.671021 1114.020996 1129.230957 1142.100952 1152.390991 1160.451050 1163.551025 1169.951050 1169.691040 1171.331055 1181.311035 1192.321045 1202.720947 1210.171021 1210.181030 1206.120972 1190.000977 1181.661011 1170.461060 1162.100952 1152.970947 1144.240967 1138.901001 1126.750977 1132.321045 1151.770996 1167.120972 1182.671021 1194.380981 1192.441040 1208.340942 1245.810059 1252.439941 1248.390015 1256.640015 1247.380005 1255.180054 1276.579956 1269.449951 1265.359985 1277.109985 1290.790039 1306.920044 1317.829956 1329.010010 1344.050049 1356.140015 1368.119995 1381.060059 1391.930054 1407.000000 1428.979980 1452.469971 1468.790039 1483.329956 1494.099976 1496.239990 1502.209961 1508.300049 1515.540039 1519.770020 1522.829956 1524.089966 1530.359985 1514.390015 1521.189941 1545.060059 1559.300049 1554.719971 1562.359985 1567.599976 1577.589966 1598.020020 1635.939941 1635.189941 1636.540039 1627.329956 1627.239990 1627.489014 1644.869019 1664.859009 1689.739014 1713.958984 1722.509033 1729.188965 1745.078979 1766.668945 1779.328979 1788.369019 1790.218994 1794.279053 1795.979004 -9999.0 -9999.0 -9999.0 -9999.0 -9999.0 -9999.0 -9999.0 -9999.0 -9999.0 -9999.0 -9999.0 -9999.0 -9999.0 -9999.0 -9999.0 -9999.0 -9999.0 -9999.0 -9999.0 -9999.0 -9999.0 -9999.0 -9999.0 -9999.0 -9999.0 -9999.0 -9999.0 -9999.0 -9999.0 -9999.0 -9999.0 -9999.0 -9999.0 -9999.0 -9999.0 -9999.0 -9999.0 -9999.0 -9999.0 -9999.0 -9999.0 -9999.0 -9999.0 -9999.0 -9999.0 -9999.0 -9999.0 -9999.0 -9999.0 -9999.0 -9999.0 -9999.0 -9999.0 -9999.0 -9999.0 -9999.0 -9999.0 -9999.0 -9999.0 -9999.0 -9999.0 -9999.0 -9999.0 -9999.0 -9999.0 -9999.0 -9999.0 -9999.0 -9999.0 -9999.0 -9999.0 -9999.0 -9999.0
301.576996 303.338013 306.619995 308.270996 309.203003 309.523987 318.006012 322.708008 330.248993 337.221008 344.812012 349.384003 348.575012 350.106995 359.299011 363.820007 366.859985 369.290985 371.101013 372.730988 374.631989 378.971985 381.983002 386.553009 390.764008 394.803986 402.854004 409.885010 416.095001 420.855988 424.205994 424.265991 423.937012 423.326996 422.928009 422.847992 423.497986 424.368988 421.188995 411.239990 396.420013 393.059998 391.050995 386.140991 374.832001 363.261993 355.182007 338.673004 321.023010 328.444000 337.574005 344.053986 358.315002 361.964996 365.656006 369.226013 375.865997 382.027008 386.897003 393.687988 402.078003 408.238007 409.128998 410.938995 416.570007 422.609985 432.529999 440.901001 448.540985 451.141998 454.752014 457.453003 460.143005 466.282989 466.653992 470.713989 475.015015 480.295013 484.375000 490.615997 497.196014 502.657013 508.467010 514.427002 519.348022 524.968018 533.468994 539.499023 548.169006 556.960022 566.299988 576.580994 586.791016 598.541016 608.961975 619.822021 631.052979 640.372986 649.603027 657.184021 667.864014 676.145020 684.294983 690.695984 695.705994 701.145996 708.046997 715.447021 722.088013 729.177979 739.497986 748.929016 755.448975 762.119995 768.849976 770.719971 763.221008 768.031006 772.262024 782.401978 793.331970 810.062988 849.862976 869.593994 875.763977 882.534973 889.155029 903.445007 915.815979 927.616028 934.387024 945.036987 952.606995 963.997986 970.038025 967.989014 974.929016 984.799011 997.659973 1004.840027 1006.971008 1010.291016 1016.601990 1021.432007 1019.452026 1023.252014 1028.932007 1035.052002 1043.261963 1060.151978 1073.161987 1080.741943 1089.342041 1101.001953 1114.411987 1129.072021 1140.712036 1154.192017 1165.541992 1170.401978 1179.390991 1178.270996 1181.051025 1191.791016 1201.130981 1212.681030 1219.781006 1223.130981 1223.181030 1209.031006 1209.390991 1187.130981 1175.561035 1166.640991 1159.071045 1154.701050 1145.620972 1136.610962 1157.291016 1175.281006 1193.350952 1205.970947 1202.620972 1216.901001 1247.620972 1273.130981 1274.961060 1270.211060 1264.951050 1277.781006 1294.510986 1292.360962 1276.561035 1291.831055 1305.151001 1316.551025 1327.181030 1341.590942 1353.401001 1365.370972 1379.081055 1394.301025 1410.461060 1411.420044 1425.219971 1445.630005 1469.250000 1485.810059 1496.660034 1502.420044 1510.089966 1516.089966 1523.339966 1529.420044 1533.900024 1534.439941 1536.349976 1526.719971 1533.680054 1551.979980 1570.079956 1571.069946 1575.150024 1579.770020 1589.050049 1608.599976 1639.189941 1644.130005 1646.060059 1642.250000 1641.869995 1641.760010 1647.770020 1685.729980 1703.270020 1716.199951 1731.520020 1740.890015 1754.689941 1765.349976 1780.550049 1789.599976 1797.060059 -9999.0 1797.290039 -9999.0 -9999.0 -9999.0 -9999.0 -9999.0 -9999.0 -9999.0 -9999.0 -9999.0 -9999.0 -9999.0 -9999.0 -9999.0 -9999.0 -9999.0 -9999.0 -9999.0 -9999.0 -9999.0 -9999.0 -9999.0 -9999.0 -9999.0 -9999.0 -9999.0 -9999.0 -9999.0 -9999.0 -9999.0 -9999.0 -9999.0 -9999.0 -9999.0 -9999.0 -9999.0 -9999.0 -9999.0 -9999.0 -9999.0 -9999.0 -9999.0 -9999.0 -9999.0 -9999.0 -9999.0 -9999.0 -9999.0 -9999.0 -9999.0 -9999.0 -9999.0 -9999.0 -9999.0 -9999.0 -9999.0 -9999.0 -9999.0 -9999.0 -9999.0 -9999.0 -9999.0 -9999.0 -9999.0 -9999.0 -9999.0 -9999.0 -9999.0 -9999.0 -9999.0 -9999.0 -9999.0 -9999.0 -9999.0
300.927002 301.627991 307.179993 307.760986 308.513000 309.403992 316.506012 324.018005 333.248993 336.001007 341.242004 351.373993 358.035004 358.316986 361.109009 362.760010 365.059998 368.251007 370.251007 371.851013 374.721985 378.131989 382.252991 386.733002 390.312988 396.984009 404.813995 411.484985 416.454987 420.235992 421.746002 421.515991 420.846985 420.177002 419.727997 419.657990 419.847992 413.639008 408.688995 407.059998 399.809998 390.750000 383.471008 373.510986 362.971985 353.821991 351.282013 338.333008 320.252991 327.653992 338.473999 349.664001 361.075012 363.915009 367.395996 373.835999 378.365997 383.576996 388.997009 393.898010 401.358002 410.597992 409.658997 411.169006 416.279999 422.079987 428.901001 443.510986 451.941010 455.502014 457.962006 460.713013 463.412994 468.113007 470.213989 474.134003 478.834991 483.614990 487.815002 494.466003 500.105988 506.696991 513.206970 519.437012 523.687988 528.877991 535.189026 543.039001 552.758972 563.500000 574.530029 585.870972 597.171021 607.851990 619.831970 632.541992 643.903015 651.773010 661.093994 669.153992 678.044006 689.604980 696.335022 702.625977 707.476013 712.596008 719.627014 727.526978 734.228027 740.098022 750.817993 754.968994 763.658997 771.619995 779.179993 782.181030 772.120972 782.241028 782.192017 785.591980 798.453003 812.802979 846.322998 879.934021 886.213989 891.974976 900.945007 917.294983 924.945984 934.216003 942.887024 954.086975 963.187988 972.528015 977.038025 978.929016 983.669006 996.619995 1005.299988 1014.119995 1014.750977 1022.221008 1029.052002 1029.862061 1027.131958 1032.202026 1038.202026 1043.462036 1053.491943 1065.212036 1076.651978 1087.421997 1097.972046 1109.702026 1121.011963 1135.052002 1147.141968 1159.791992 1170.641968 1179.082031 1185.552002 1187.702026 1190.932007 1201.151978 1210.302002 1221.192017 1226.932007 1232.232056 1239.161987 1241.411987 1224.531982 1202.110962 1189.340942 1181.901001 1176.110962 1168.921021 1158.441040 1152.600952 1161.191040 1182.110962 1202.651001 1220.201050 1220.681030 1228.110962 1256.860962 1274.441040 1295.801025 1287.911011 1282.171021 1290.600952 1310.571045 1308.500977 1291.281006 1290.370972 1308.181030 1330.831055 1338.870972 1349.740967 1362.010986 1376.061035 1391.401001 1407.831055 1427.031006 1433.640991 1435.211060 1451.500977 1470.301025 1486.770996 1500.151001 1507.911011 1515.061035 1526.331055 1531.581055 1537.421021 1545.230957 1547.090942 1546.490967 1537.610962 1547.431030 1565.571045 1577.390991 1582.681030 1588.031006 1594.181030 1606.581055 1632.230957 1644.720947 1653.581055 1658.260986 1658.770996 1659.250977 1658.230957 1661.720947 1673.331055 1695.151001 1713.931030 1729.240967 1749.110962 1762.100952 1774.281006 1784.250977 1792.840942 1798.850952 -9999.0 -9999.0 -9999.0 -9999.0 -9999.0 -9999.0 -9999.0 -9999.0 -9999.0 -9999.0 -9999.0 -9999.0 -9999.0 -9999.0 -9999.0 -9999.0 -9999.0 -9999.0 -9999.0 -9999.0 -9999.0 -9999.0 -9999.0 -9999.0 -9999.0 -9999.0 -9999.0 -9999.0 -9999.0 -9999.0 -9999.0 -9999.0 -9999.0 -9999.0 -9999.0 -9999.0 -9999.0 -9999.0 -9999.0 -9999.0 -9999.0 -9999.0 -9999.0 -9999.0 -9999.0 -9999.0 -9999.0 -9999.0 -9999.0 -9999.0 -9999.0 -9999.0 -9999.0 -9999.0 -9999.0 -9999.0 -9999.0 -9999.0 -9999.0 -9999.0 -9999.0 -9999.0 -9999.0 -9999.0 -9999.0 -9999.0 -9999.0 -9999.0 -9999.0 -9999.0 -9999.0 -9999.0 -9999.0 -9999.0 -9999.0
300.506989 301.597992 304.109985 308.381012 309.312988 309.223999 319.156006 326.648010 330.639008 336.311005 344.312012 354.824005 357.875000 360.166992 362.319000 364.269989 366.070007 367.950989 370.790985 372.721008 375.742004 378.052002 381.833008 385.803009 390.653015 397.894012 405.903992 412.684998 414.225006 418.825989 419.256012 418.466003 417.717010 417.266998 416.747986 416.828003 409.928009 402.678986 400.378998 397.279999 391.429993 383.209991 370.751007 364.480988 352.101990 341.122009 335.721985 335.532989 332.412994 321.894012 332.324005 344.963989 362.494995 365.464996 369.626007 375.925995 380.415985 385.127014 390.756989 395.058014 401.907989 410.799011 411.188995 413.648987 418.369995 425.200012 431.960999 443.170990 453.871002 458.212006 460.992004 463.963013 467.032989 469.833008 474.444000 478.084015 482.144989 486.934998 492.265015 498.735992 504.325989 510.006989 517.106995 522.807983 527.127991 533.487976 537.718994 548.158997 558.940002 570.830017 581.799988 593.341003 606.591003 619.682007 630.632019 645.682007 658.143005 663.682983 674.544006 682.903992 691.374023 700.784973 707.835022 715.575989 719.986023 725.247009 731.716980 739.666992 746.418030 753.377991 763.338989 770.669006 776.318970 784.330017 789.690002 792.051025 796.301025 796.960999 794.512024 800.981995 806.502991 818.112976 833.263977 888.004028 896.374023 902.914978 911.784973 926.995972 934.505981 943.015991 951.487000 962.716980 971.958008 979.927979 983.067993 985.278992 992.419006 1006.609985 1011.770020 1020.580994 1024.980957 1032.151001 1041.031982 1039.332031 1035.552002 1040.822021 1044.862061 1052.602051 1062.401978 1072.631958 1082.082031 1094.251953 1106.682007 1117.791992 1128.312012 1139.192017 1153.271973 1166.521973 1178.072021 1188.281982 1194.482056 1198.722046 1198.871948 1206.712036 1217.092041 1228.391968 1235.891968 1242.761963 1249.802002 1253.531982 1228.541992 1212.791992 1203.442017 1197.251953 1191.751953 1183.052002 1174.381958 1171.802002 1167.842041 1185.342041 1208.102051 1227.682007 1240.011963 1240.232056 1264.401978 1293.241943 1310.151978 1314.171997 1301.881958 1311.011963 1327.771973 1320.041992 1306.822021 1299.932007 1308.082031 1333.322021 1345.750977 1355.901001 1369.100952 1384.431030 1400.600952 1430.970947 1442.551025 1448.610962 1446.740967 1449.941040 1467.630981 1486.401001 1501.090942 1515.970947 1522.520996 1532.071045 1540.260986 1547.301025 1554.071045 1559.090942 1558.340942 1549.720947 1559.360962 1579.921021 1584.890991 1593.911011 1605.980957 1609.211060 1620.220947 1644.490967 1659.720947 1665.880981 1671.541016 1675.781006 1677.651001 1674.510986 1677.911011 1689.081055 1721.880981 1730.590942 1736.870972 1749.730957 1767.510986 1783.860962 1790.301025 1797.661011 1801.051025 -9999.0 -9999.0 -9999.0 -9999.0 -9999.0 -9999.0 -9999.0 -9999.0 -9999.0 -9999.0 -9999.0 -9999.0 -9999.0 -9999.0 -9999.0 -9999.0 -9999.0 -9999.0 -9999.0 -9999.0 -9999.0 -9999.0 -9999.0 -9999.0 -9999.0 -9999.0 -9999.0 -9999.0 -9999.0 -9999.0 -9999.0 -9999.0 -9999.0 -9999.0 -9999.0 -9999.0 -9999.0 -9999.0 -9999.0 -9999.0 -9999.0 -9999.0 -9999.0 -9999.0 -9999.0 -9999.0 -9999.0 -9999.0 -9999.0 -9999.0 -9999.0 -9999.0 -9999.0 -9999.0 -9999.0 -9999.0 -9999.0 -9999.0 -9999.0 -9999.0 -9999.0 -9999.0 -9999.0 -9999.0 -9999.0 -9999.0 -9999.0 -9999.0 -9999.0 -9999.0 -9999.0 -9999.0 -9999.0 -9999.0 -9999.0
300.335999 301.608002 304.049988 309.200989 309.292999 309.223999 319.466003 327.166992 331.028992 336.751007 347.022003 348.933990 354.234985 360.117004 363.067993 365.690002 367.750000 369.431000 371.591003 374.101013 376.391998 378.832001 382.333008 385.683014 392.342987 399.944000 405.593994 411.045013 412.024994 416.015991 416.096008 415.265991 414.627014 414.106995 413.868011 410.278015 402.597992 398.549011 394.408997 389.540009 384.480011 370.880005 363.040985 351.460999 341.302002 326.402008 321.592010 322.903015 325.592987 321.213989 332.963989 344.104004 358.984985 367.994995 372.165985 377.765991 382.157013 386.807007 392.687012 397.298004 403.518005 410.819000 412.438995 417.699005 424.609985 431.510010 438.681000 447.001007 454.501007 461.381989 464.802002 467.382996 470.303009 473.662994 478.033997 481.533997 485.744995 490.304993 497.276001 502.145996 507.946014 513.916992 520.776978 527.028015 532.697998 538.538025 542.669006 554.008972 567.640015 578.969971 590.219971 600.570984 613.510986 626.692017 640.171997 655.203003 668.473022 675.583008 686.604004 696.044006 704.585022 712.934998 720.445007 728.056030 733.226013 737.687012 743.666992 751.987000 758.677979 766.497986 774.179016 781.549011 788.760010 795.150024 799.859985 801.440979 808.481018 812.632019 811.671997 815.291992 816.622986 826.783020 839.153992 886.843994 904.023987 913.284973 920.755005 935.585999 942.796021 951.526978 959.987000 971.817017 977.158020 988.927979 993.789001 992.799011 1001.098999 1015.000000 1018.469971 1027.010986 1032.071045 1040.381958 1047.251953 1045.921997 1044.121948 1046.751953 1051.751953 1061.052002 1071.202026 1081.151978 1090.901978 1100.592041 1112.232056 1124.572021 1136.371948 1144.921997 1155.362061 1170.552002 1184.241943 1194.692017 1204.171997 1204.511963 1212.131958 1215.161987 1225.072021 1232.602051 1243.202026 1250.482056 1259.151978 1265.781982 1243.011963 1228.802002 1223.702026 1213.562012 1207.121948 1197.692017 1192.182007 1186.511963 1174.852051 1191.712036 1207.541992 1228.171997 1261.182007 1254.072021 1271.011963 1294.092041 1318.041992 1328.322021 1333.621948 1333.612061 1334.852051 1326.302002 1313.112061 1319.102051 1318.511963 1328.781982 1345.982056 1359.421997 1372.901978 1388.541992 1407.041992 1434.062012 1450.812012 1460.562012 1464.812012 1459.281982 1467.021973 1483.602051 1501.631958 1516.342041 1528.942017 1539.212036 1547.421997 1556.531982 1562.901978 1569.072021 1568.342041 1566.751953 1570.491943 1583.271973 1592.631958 1601.982056 1616.251953 1624.052002 1633.791992 1659.031982 1670.442017 1680.641968 1686.011963 1690.092041 1700.192017 1702.251953 1716.682007 1729.541992 1745.482056 1749.942017 1748.631958 1757.592041 1771.592041 1785.682007 1793.521973 1800.302002 1805.722046 -9999.0 -9999.0 -9999.0 -9999.0 -9999.0 -9999.0 -9999.0 -9999.0 -9999.0 -9999.0 -9999.0 -9999.0 -9999.0 -9999.0 -9999.0 -9999.0 -9999.0 -9999.0 -9999.0 -9999.0 -9999.0 -9999.0 -9999.0 -9999.0 -9999.0 -9999.0 -9999.0 -9999.0 -9999.0 -9999.0 -9999.0 -9999.0 -9999.0 -9999.0 -9999.0 -9999.0 -9999.0 -9999.0 -9999.0 -9999.0 -9999.0 -9999.0 -9999.0 -9999.0 -9999.0 -9999.0 -9999.0 -9999.0 -9999.0 -9999.0 -9999.0 -9999.0 -9999.0 -9999.0 -9999.0 -9999.0 -9999.0 -9999.0 -9999.0 -9999.0 -9999.0 -9999.0 -9999.0 -9999.0 -9999.0 -9999.0 -9999.0 -9999.0 -9999.0 -9999.0 -9999.0 -9999.0 -9999.0 -9999.0 -9999.0
299.735992 298.678009 301.929993 309.161011 309.363007 309.223999 316.526001 327.377014 334.398987 336.851013 344.752014 348.553986 351.815002 359.247009 363.018005 366.299988 369.369995 371.371002 374.290985 376.441010 377.932007 380.182007 382.763000 385.662994 392.393005 398.664001 403.993988 408.984985 409.725006 412.635986 412.906006 412.415985 412.016998 411.677002 411.757996 406.597992 397.898010 392.678986 387.808990 373.839996 373.559998 367.920013 352.851013 344.010986 331.791992 315.821991 317.451996 323.703003 324.963013 331.563995 341.354004 350.204987 364.005005 370.494995 377.196014 382.626007 384.286987 390.266998 394.516998 399.208008 404.078003 412.338989 417.609009 423.269012 430.450012 436.399994 443.210999 449.311005 455.860992 463.862000 468.261993 471.622986 474.733002 478.424011 480.834015 485.074005 489.565002 495.535004 500.216003 505.575989 512.106018 518.987000 524.637024 530.857971 538.528015 545.268005 548.789001 558.729004 571.000000 583.599976 596.580994 608.981018 624.880981 637.921997 650.552002 663.403015 677.723022 688.643005 699.653992 709.723999 718.395020 726.174988 732.594971 743.385986 746.736023 751.077026 757.517029 764.468018 771.328003 779.458008 786.239014 794.408997 800.929993 807.520020 812.130005 811.750977 824.260986 827.981995 825.031982 829.822998 829.153015 838.312988 849.703979 892.323975 910.034973 921.554993 930.455017 943.085999 949.056030 958.456970 969.437012 981.677979 985.677979 997.447998 1004.429016 1004.879028 1009.559998 1024.000000 1028.839966 1037.161011 1043.161011 1044.621948 1046.921997 1049.501953 1051.682983 1054.172974 1061.162964 1071.003052 1081.233032 1093.583008 1101.922974 1110.772949 1118.373047 1127.713013 1140.322998 1151.983032 1161.172974 1171.521973 1184.641968 1200.031982 1209.472046 1214.362061 1222.281982 1225.791992 1231.261963 1238.202026 1248.602051 1257.222046 1266.171997 1273.771973 1259.682007 1247.881958 1246.261963 1228.612061 1221.271973 1213.371948 1207.712036 1199.612061 1184.952026 1200.751953 1217.161987 1247.881958 1275.852051 1266.202026 1281.062012 1309.291992 1318.982056 1336.352051 1344.121948 1347.011963 1343.991943 1333.511963 1324.182007 1331.901978 1332.232056 1326.241943 1340.911987 1357.582031 1373.312012 1389.871948 1408.832031 1431.761963 1454.062012 1468.692017 1474.871948 1476.612061 1471.141968 1485.302002 1500.342041 1515.552002 1530.261963 1544.531982 1554.141968 1561.661987 1569.011963 1578.871948 1581.363037 1581.072998 1586.233032 1590.682983 1594.983032 1607.123047 1622.243042 1635.133057 1650.302979 1667.552979 1680.662964 1688.213013 1698.162964 1703.243042 1714.782959 1723.022949 1729.993042 1739.733032 1752.963013 1765.873047 1763.843018 1770.152954 1783.392944 1797.753052 1805.162964 1803.152954 1808.892944 -9999.0 -9999.0 -9999.0 -9999.0 -9999.0 -9999.0 -9999.0 -9999.0 -9999.0 -9999.0 -9999.0 -9999.0 -9999.0 -9999.0 -9999.0 -9999.0 -9999.0 -9999.0 -9999.0 -9999.0 -9999.0 -9999.0 -9999.0 -9999.0 -9999.0 -9999.0 -9999.0 -9999.0 -9999.0 -9999.0 -9999.0 -9999.0 -9999.0 -9999.0 -9999.0 -9999.0 -9999.0 -9999.0 -9999.0 -9999.0 -9999.0 -9999.0 -9999.0 -9999.0 -9999.0 -9999.0 -9999.0 -9999.0 -9999.0 -9999.0 -9999.0 -9999.0 -9999.0 -9999.0 -9999.0 -9999.0 -9999.0 -9999.0 -9999.0 -9999.0 -9999.0 -9999.0 -9999.0 -9999.0 -9999.0 -9999.0 -9999.0 -9999.0 -9999.0 -9999.0 -9999.0 -9999.0 -9999.0 -9999.0 -9999.0
298.675995 301.828003 300.510010 309.411011 309.243011 309.223999 314.726013 325.867004 331.128998 336.341003 341.571991 344.993988 350.524994 355.957001 361.877991 365.899994 370.200012 373.531006 376.501007 378.700989 380.842011 382.641998 384.023010 387.403015 391.743011 397.283997 402.063995 405.774994 407.774994 409.506012 410.316010 410.056000 409.897003 409.987000 403.858002 399.078003 391.148010 383.329010 377.088989 366.970001 359.250000 359.809998 350.811005 337.661011 322.921997 318.492004 328.612000 336.942993 331.692993 339.544006 355.984009 363.625000 367.364990 371.274994 378.226013 384.615997 389.377014 393.016998 396.617004 402.058014 409.268005 416.748993 421.338989 428.158997 434.220001 440.750000 446.960999 453.871002 461.312012 468.122009 472.641998 475.562988 478.393005 481.053986 485.753998 490.944000 495.464996 500.515015 504.455994 510.545990 516.046021 522.427002 528.086975 537.208008 543.888000 551.778992 555.088989 563.049011 574.530029 587.619995 604.591003 620.901001 637.661011 649.142029 662.091980 675.112976 688.932983 700.333984 711.643982 722.424011 731.755005 739.515015 746.356018 754.176025 761.356018 764.456970 770.716980 777.418030 784.668030 790.908020 797.919006 805.609009 814.429993 820.219971 826.370972 825.971008 839.690979 844.052002 839.041992 844.293030 845.393005 847.742981 862.244019 898.994019 917.354980 928.065002 937.036011 949.236023 956.765991 965.387024 976.276978 989.838013 996.728027 1006.047974 1012.379028 1017.718994 1016.469971 1027.609985 1036.281006 1046.980957 1048.561035 1050.862061 1053.602051 1057.062988 1059.973022 1064.312988 1071.162964 1082.343018 1092.142944 1102.932983 1111.432983 1120.503052 1128.642944 1137.953003 1146.853027 1158.062988 1168.392944 1178.652954 1189.262939 1202.572998 1214.762939 1223.762939 1231.812988 1237.973022 1241.322998 1243.333008 1252.233032 1263.272949 1273.253052 1276.733032 1285.512939 1271.192993 1264.953003 1244.692993 1235.892944 1227.483032 1222.512939 1211.383057 1197.883057 1207.473022 1224.833008 1258.762939 1272.802979 1280.343018 1288.713013 1322.973022 1336.853027 1345.892944 1357.133057 1359.892944 1353.753052 1344.593018 1337.953003 1344.713013 1345.103027 1343.052979 1339.682983 1355.083008 1372.562988 1389.442993 1406.942993 1428.853027 1449.192993 1468.973022 1483.262939 1490.973022 1488.883057 1489.203003 1495.802979 1511.282959 1528.233032 1544.072998 1558.932983 1566.103027 1573.782959 1584.682983 1591.213013 1592.463013 1597.572998 1603.213013 1607.392944 1613.272949 1621.012939 1631.322998 1647.833008 1668.392944 1681.302979 1691.083008 1704.392944 1720.512939 1725.672974 1733.022949 1740.682983 1750.672974 1762.512939 1774.572998 1779.343018 1784.843018 1794.493042 1808.863037 1812.942993 1811.103027 1811.614014 -9999.0 -9999.0 -9999.0 -9999.0 -9999.0 -9999.0 -9999.0 -9999.0 -9999.0 -9999.0 -9999.0 -9999.0 -9999.0 -9999.0 -9999.0 -9999.0 -9999.0 -9999.0 -9999.0 -9999.0 -9999.0 -9999.0 -9999.0 -9999.0 -9999.0 -9999.0 -9999.0 -9999.0 -9999.0 -9999.0 -9999.0 -9999.0 -9999.0 -9999.0 -9999.0 -9999.0 -9999.0 -9999.0 -9999.0 -9999.0 -9999.0 -9999.0 -9999.0 -9999.0 -9999.0 -9999.0 -9999.0 -9999.0 -9999.0 -9999.0 -9999.0 -9999.0 -9999.0 -9999.0 -9999.0 -9999.0 -9999.0 -9999.0 -9999.0 -9999.0 -9999.0 -9999.0 -9999.0 -9999.0 -9999.0 -9999.0 -9999.0 -9999.0 -9999.0 -9999.0 -9999.0 -9999.0 -9999.0 -9999.0 -9999.0
298.365997 299.447998 299.098999 309.610992 309.162994 309.243988 310.335999 325.307007 331.468994 333.320007 338.052002 343.884003 350.154999 353.987000 360.947998 365.660004 370.600006 374.740997 377.431000 380.200989 382.981995 384.471985 385.752991 387.933014 391.673004 395.973999 399.533997 402.625000 405.404999 406.596008 407.156006 407.476013 407.897003 408.326996 398.067993 392.648010 382.977997 370.799011 363.938995 359.869995 348.119995 345.619995 347.990997 331.941010 317.332001 324.242004 342.222992 351.263000 338.382996 347.834015 363.813995 368.184998 369.984985 374.714996 380.075989 386.175995 392.346985 397.627014 402.027008 409.238007 413.618011 419.868988 425.329010 431.730011 439.320007 446.549988 453.971008 458.971008 466.101990 473.122009 476.612000 479.333008 482.583008 487.114014 491.514008 495.204010 500.975006 504.024994 510.186005 514.916016 520.456970 525.557007 532.947021 541.578003 549.627991 558.448975 563.838989 569.859009 580.150024 594.309998 615.051025 633.020996 648.952026 660.622009 672.981995 686.653015 699.593018 710.504028 722.604004 734.973999 743.344971 752.445007 760.366028 766.926025 775.096985 779.937012 787.346985 793.187988 794.168030 802.439026 811.419006 817.398987 824.599976 833.900024 841.361023 836.791016 852.961975 860.562012 857.461975 860.523010 860.862976 861.354004 874.083984 910.583984 923.895020 937.515015 944.125977 957.046021 962.767029 971.427002 981.226990 994.367981 1004.297974 1013.588989 1019.439026 1024.538940 1028.660034 1031.729980 1036.230957 1049.281006 1053.371948 1055.812012 1058.942017 1063.113037 1067.983032 1073.373047 1078.633057 1092.093018 1102.392944 1112.022949 1121.012939 1129.912964 1139.262939 1146.512939 1156.182983 1164.772949 1174.562988 1186.953003 1198.042969 1209.142944 1220.022949 1230.113037 1239.113037 1248.062988 1253.243042 1251.802979 1256.062988 1263.422974 1273.892944 1281.753052 1293.912964 1299.812988 1290.402954 1273.272949 1266.662964 1243.762939 1235.662964 1226.613037 1211.652954 1215.812988 1230.422974 1246.532959 1263.203003 1283.312988 1303.642944 1326.863037 1338.873047 1354.213013 1371.003052 1371.453003 1363.412964 1357.703003 1355.012939 1359.343018 1358.442993 1357.483032 1354.873047 1356.822998 1372.422974 1389.432983 1405.762939 1422.772949 1443.682983 1464.223022 1484.833008 1498.703003 1503.623047 1503.072998 1501.562988 1506.963013 1522.473022 1538.083984 1554.293945 1567.923950 1579.154053 1587.433960 1594.644043 1600.994019 1605.764038 1614.923950 1623.303955 1632.864014 1639.254028 1647.663940 1657.634033 1672.543945 1683.384033 1693.654053 1704.683960 1721.024048 1732.654053 1741.583984 1749.784058 1763.923950 1772.293945 1781.463989 1790.104004 1797.264038 1807.183960 1814.163940 1818.183960 1817.223999 -9999.0 -9999.0 -9999.0 -9999.0 -9999.0 -9999.0 -9999.0 -9999.0 -9999.0 -9999.0 -9999.0 -9999.0 -9999.0 -9999.0 -9999.0 -9999.0 -9999.0 -9999.0 -9999.0 -9999.0 -9999.0 -9999.0 -9999.0 -9999.0 -9999.0 -9999.0 -9999.0 -9999.0 -9999.0 -9999.0 -9999.0 -9999.0 -9999.0 -9999.0 -9999.0 -9999.0 -9999.0 -9999.0 -9999.0 -9999.0 -9999.0 -9999.0 -9999.0 -9999.0 -9999.0 -9999.0 -9999.0 -9999.0 -9999.0 -9999.0 -9999.0 -9999.0 -9999.0 -9999.0 -9999.0 -9999.0 -9999.0 -9999.0 -9999.0 -9999.0 -9999.0 -9999.0 -9999.0 -9999.0 -9999.0 -9999.0 -9999.0 -9999.0 -9999.0 -9999.0 -9999.0 -9999.0 -9999.0 -9999.0 -9999.0 -9999.0
296.216003 299.127991 299.748993 301.691010 309.243011 309.243988 316.585999 323.386993 327.188995 333.510010 340.492004 344.044006 349.295013 354.016998 359.808014 367.529999 372.820007 375.501007 378.300995 381.330994 384.342011 387.041992 387.703003 389.403015 392.002991 395.223999 398.343994 400.774994 403.515015 404.196014 404.985992 406.015991 406.557007 406.687012 390.977997 380.048004 368.937988 360.588989 351.618988 347.609985 339.410004 332.190002 339.971008 329.251007 315.962006 330.451996 350.252991 360.083008 342.263000 356.984009 367.134003 370.765015 373.065002 377.035004 382.746002 389.346008 396.566986 400.497009 405.506989 411.558014 418.088013 425.539001 430.389008 436.500000 444.640015 452.320007 459.381012 465.441010 471.391998 476.812012 480.522003 483.863007 487.833008 492.264008 495.634003 499.975006 504.265015 509.334991 513.536011 517.945984 523.646973 530.377014 536.956970 544.228027 553.328003 562.559021 571.088989 578.270020 585.520020 600.460022 621.250977 642.140991 656.312012 666.721985 676.791992 689.302979 703.513000 718.124023 730.213989 744.474976 754.614990 764.474976 772.185974 779.726013 786.226990 794.117004 803.197021 807.828003 807.877991 814.218994 824.508972 832.580017 836.289978 848.510010 856.551025 849.450989 867.372009 877.411987 873.362000 881.143005 879.593018 896.513977 905.674011 915.945007 926.715027 942.085022 951.156006 962.986023 968.836975 976.817017 985.697021 999.348022 1011.528015 1019.588989 1026.019043 1031.839966 1035.069946 1037.739990 1040.500977 1052.321045 1056.671997 1060.572021 1065.182007 1070.743042 1076.123047 1082.172974 1089.292969 1101.072998 1111.103027 1122.373047 1131.483032 1140.772949 1147.662964 1155.963013 1165.802979 1174.633057 1181.562988 1192.552979 1204.922974 1216.623047 1227.152954 1236.383057 1247.613037 1258.003052 1264.012939 1262.343018 1264.993042 1270.762939 1279.172974 1287.782959 1299.282959 1308.083008 1305.093018 1305.083008 1288.932983 1259.302979 1250.782959 1240.003052 1226.792969 1222.932983 1240.022949 1254.343018 1276.642944 1290.953003 1308.453003 1335.303955 1350.293945 1362.634033 1379.504028 1382.813965 1376.524048 1370.494019 1371.884033 1376.144043 1374.384033 1370.864014 1369.463989 1360.043945 1374.413940 1390.124023 1405.994019 1422.654053 1441.703979 1465.994019 1485.293945 1503.504028 1513.833984 1517.274048 1519.604004 1519.984009 1520.784058 1533.313965 1550.514038 1564.593994 1577.963989 1588.404053 1593.524048 1602.354004 1608.374023 1620.313965 1633.813965 1644.293945 1651.323975 1656.823975 1667.364014 1678.563965 1691.313965 1702.644043 1712.394043 1723.454956 1736.574951 1746.484985 1756.165039 1771.364990 1778.385010 1786.954956 1796.484985 1803.295044 1813.175049 1818.175049 1821.005005 1820.734985 -9999.0 -9999.0 -9999.0 -9999.0 -9999.0 -9999.0 -9999.0 -9999.0 -9999.0 -9999.0 -9999.0 -9999.0 -9999.0 -9999.0 -9999.0 -9999.0 -9999.0 -9999.0 -9999.0 -9999.0 -9999.0 -9999.0 -9999.0 -9999.0 -9999.0 -9999.0 -9999.0 -9999.0 -9999.0 -9999.0 -9999.0 -9999.0 -9999.0 -9999.0 -9999.0 -9999.0 -9999.0 -9999.0 -9999.0 -9999.0 -9999.0 -9999.0 -9999.0 -9999.0 -9999.0 -9999.0 -9999.0 -9999.0 -9999.0 -9999.0 -9999.0 -9999.0 -9999.0 -9999.0 -9999.0 -9999.0 -9999.0 -9999.0 -9999.0 -9999.0 -9999.0 -9999.0 -9999.0 -9999.0 -9999.0 -9999.0 -9999.0 -9999.0 -9999.0 -9999.0 -9999.0 -9999.0 -9999.0 -9999.0 -9999.0 -9999.0
294.135986 298.858002 299.688995 303.140991 309.092987 309.144012 317.395996 323.946991 330.378998 337.109985 342.291992 346.144012 350.424988 355.106995 362.097992 369.799988 375.970001 377.881012 379.841003 382.510986 385.682007 389.761993 390.562988 391.722992 392.183014 395.164001 395.924011 400.385010 401.595001 402.135986 403.045990 404.645996 405.696991 402.707001 388.537994 373.868011 357.268005 352.098999 341.889008 332.059998 323.089996 321.049988 321.140991 317.300995 314.282013 330.351990 348.122986 365.743011 355.923004 351.914001 365.523987 371.095001 375.524994 379.244995 384.306000 392.466003 398.196991 402.696991 409.167999 414.868011 420.828003 429.868988 435.898987 442.649994 448.980011 457.670013 465.740997 472.351013 478.002014 481.022003 484.442993 488.092987 491.812988 496.063995 500.963989 505.665009 509.964996 513.815002 517.236023 521.945984 526.767029 534.177002 540.788025 549.338013 557.607971 567.258972 575.778992 584.059998 594.789978 605.590027 630.601013 645.320984 659.091980 669.752014 678.812988 690.283020 705.453003 725.533997 738.773987 752.375000 764.395020 775.635010 785.926025 792.455994 797.137024 804.497009 815.848022 820.427979 823.158020 826.848999 836.039001 846.530029 853.229980 862.640015 868.760986 862.080994 879.211975 890.622009 894.403015 902.552979 911.172974 916.693970 925.484009 930.854980 939.875000 943.534973 954.796021 969.056030 975.307007 982.757019 992.138000 1003.567993 1019.567993 1025.999023 1032.968994 1039.180054 1043.229980 1047.600952 1054.031006 1056.671021 1060.682007 1066.082031 1072.243042 1077.812988 1083.672974 1090.353027 1098.282959 1109.383057 1119.453003 1131.432983 1141.233032 1149.172974 1157.083008 1166.292969 1175.432983 1183.483032 1193.473022 1204.162964 1215.552979 1225.552979 1235.353027 1245.432983 1257.932983 1265.743042 1271.203979 1272.923950 1275.104004 1280.163940 1286.043945 1291.563965 1300.683960 1309.734009 1310.134033 1317.823975 1299.043945 1275.884033 1264.803955 1252.693970 1242.274048 1236.293945 1247.053955 1265.173950 1292.254028 1309.973999 1318.264038 1336.274048 1356.494019 1374.453979 1394.303955 1394.364014 1389.774048 1384.163940 1383.463989 1388.644043 1391.124023 1388.034058 1383.404053 1374.634033 1378.134033 1384.963989 1403.774048 1419.384033 1436.134033 1453.803955 1486.463989 1507.734009 1526.663940 1532.813965 1535.833984 1535.114014 1535.824951 1534.905029 1545.104980 1554.405029 1566.555054 1578.305054 1588.494995 1598.895020 1607.694946 1620.484985 1636.645020 1649.844971 1657.435059 1665.285034 1675.185059 1689.625000 1699.104980 1707.765015 1719.795044 1730.334961 1742.104980 1752.344971 1762.324951 1775.474976 1783.824951 1793.984985 1800.875000 1809.275024 1814.234985 1818.655029 -9999.0 -9999.0 -9999.0 -9999.0 -9999.0 -9999.0 -9999.0 -9999.0 -9999.0 -9999.0 -9999.0 -9999.0 -9999.0 -9999.0 -9999.0 -9999.0 -9999.0 -9999.0 -9999.0 -9999.0 -9999.0 -9999.0 -9999.0 -9999.0 -9999.0 -9999.0 -9999.0 -9999.0 -9999.0 -9999.0 -9999.0 -9999.0 -9999.0 -9999.0 -9999.0 -9999.0 -9999.0 -9999.0 -9999.0 -9999.0 -9999.0 -9999.0 -9999.0 -9999.0 -9999.0 -9999.0 -9999.0 -9999.0 -9999.0 -9999.0 -9999.0 -9999.0 -9999.0 -9999.0 -9999.0 -9999.0 -9999.0 -9999.0 -9999.0 -9999.0 -9999.0 -9999.0 -9999.0 -9999.0 -9999.0 -9999.0 -9999.0 -9999.0 -9999.0 -9999.0 -9999.0 -9999.0 -9999.0 -9999.0 -9999.0 -9999.0 -9999.0 -9999.0
292.295990 298.597992 296.669006 302.181000 308.862000 309.164001 318.306000 325.266998 332.389008 339.720001 344.832001 349.273010 353.864990 358.687012 364.838013 371.380005 378.820007 382.460999 382.811005 382.790985 387.502014 392.351990 395.233002 396.602997 397.342987 397.324005 398.433990 398.915009 400.334991 400.455994 401.045990 402.985992 404.647003 394.696991 381.007996 370.108002 358.727997 341.079010 332.509003 323.579987 311.880005 317.890015 318.851013 324.031006 330.092010 342.682007 354.053009 370.372986 370.942993 367.264008 357.234009 369.214996 373.075012 378.404999 379.705994 389.976013 397.856995 404.326996 411.618011 416.917999 424.078003 432.128998 439.688995 447.250000 457.209991 463.410004 471.841003 477.420990 481.872009 484.441986 488.683014 492.483002 496.233002 500.944000 505.653992 510.595001 514.705017 517.715027 521.075989 525.315979 530.966980 538.286987 546.078003 555.197998 566.098022 575.828979 583.479004 593.159973 599.700012 608.671021 628.450989 641.681030 655.562012 667.461975 679.293030 691.783020 705.843018 721.343994 738.473999 759.794983 773.815002 786.036011 797.875977 805.455994 809.726990 815.677002 828.247986 832.857971 834.658020 838.489014 848.249023 858.690002 867.020020 874.401001 880.611023 876.390991 889.892029 901.711975 909.963013 919.593018 927.624023 931.564026 938.104004 948.085022 950.145020 952.825989 959.156006 972.825989 982.827026 989.997009 1001.557983 1012.728027 1022.989014 1031.098999 1039.298950 1042.719971 1046.359985 1053.661011 1056.090942 1060.322021 1065.241943 1070.062012 1075.983032 1082.762939 1087.302979 1095.873047 1107.652954 1117.912964 1128.942993 1140.613037 1148.693970 1157.014038 1165.504028 1176.473999 1185.274048 1193.634033 1203.284058 1214.703979 1225.433960 1235.563965 1243.963989 1255.014038 1266.604004 1270.823975 1276.963989 1279.573975 1285.884033 1290.453979 1295.374023 1301.323975 1310.443970 1313.114014 1316.583984 1326.713989 1319.134033 1296.124023 1277.854004 1267.413940 1259.083984 1246.953979 1254.774048 1280.014038 1304.813965 1319.433960 1330.193970 1342.943970 1359.754028 1389.254028 1404.284058 1406.213989 1403.604004 1399.754028 1396.014038 1400.844971 1410.035034 1403.944946 1397.944946 1391.844971 1385.125000 1399.185059 1405.665039 1418.584961 1433.775024 1450.594971 1477.944946 1502.935059 1525.905029 1537.314941 1544.925049 1549.785034 1551.015015 1550.415039 1555.665039 1562.755005 1569.194946 1574.984985 1581.494995 1594.564941 1605.005005 1619.814941 1638.535034 1651.255005 1661.395020 1671.355957 1686.355957 1699.255981 1708.186035 1712.786011 1725.495972 1737.005981 1745.446045 1756.156006 1766.635986 1777.895996 1790.686035 1797.796021 1803.385986 1813.225952 1815.166016 1819.895996 -9999.0 -9999.0 -9999.0 -9999.0 -9999.0 -9999.0 -9999.0 -9999.0 -9999.0 -9999.0 -9999.0 -9999.0 -9999.0 -9999.0 -9999.0 -9999.0 -9999.0 -9999.0 -9999.0 -9999.0 -9999.0 -9999.0 -9999.0 -9999.0 -9999.0 -9999.0 -9999.0 -9999.0 -9999.0 -9999.0 -9999.0 -9999.0 -9999.0 -9999.0 -9999.0 -9999.0 -9999.0 -9999.0 -9999.0 -9999.0 -9999.0 -9999.0 -9999.0 -9999.0 -9999.0 -9999.0 -9999.0 -9999.0 -9999.0 -9999.0 -9999.0 -9999.0 -9999.0 -9999.0 -9999.0 -9999.0 -9999.0 -9999.0 -9999.0 -9999.0 -9999.0 -9999.0 -9999.0 -9999.0 -9999.0 -9999.0 -9999.0 -9999.0 -9999.0 -9999.0 -9999.0 -9999.0 -9999.0 -9999.0 -9999.0 -9999.0 -9999.0 -9999.0
